-0.08289642 -0.06025328 0.41194114
-0.08198243 -0.06020409 0.39415765
-0.16939846 -0.06490950 0.36995393
-0.19329721 -0.06619593 0.31376758
-0.21368924 -0.06729358 0.27894282
-0.25087920 -0.06929544 0.21259660
-0.20665348 -0.00294220 0.32314420
-0.18993542 -0.00346146 0.26948565
-0.15154833 -0.00139516 0.40186045
-0.15241086 -0.00144159 0.41908976
-0.16001785 -0.00185106 0.42093423
-0.13520327 -0.00051538 0.38828018
-0.20109388 -0.00406210 0.25438330
-0.13668320 -0.06251423 0.37172714
-0.18963629 -0.06385545 0.37460887
-0.20934266 -0.00480573 0.32711852
-0.16629592 -0.00216199 0.35347477
-0.20042279 -0.00401837 0.26988941
-0.28038979 -0.03300843 0.19827281
-0.14898804 -0.06045900 0.34787863
-0.13630873 -0.05977650 0.40937239
-0.09787955 -0.05770794 0.42431980
-0.07929139 -0.05670737 0.39569783
-0.17907560 -0.06207855 0.29405737
-0.18500698 -0.06451620 0.38550588
-0.20731413 -0.06023647 0.33133873
-0.20011082 -0.00382350 0.30862424
-0.16114852 -0.00189740 0.38335809
-0.15547875 -0.06081210 0.40700158
-0.18755883 -0.06257381 0.29741055
-0.19760683 -0.06004860 0.36678490
-0.18293425 -0.00302838 0.40261292
-0.21589369 -0.00473903 0.27306175
-0.27660918 -0.04719050 0.20820667
-0.20968914 -0.06374026 0.25605378
-0.16559529 -0.06137127 0.39977103
-0.17910308 -0.00276922 0.36474907
-0.25476366 -0.00819062 0.23400483
-0.16507843 -0.06135109 0.38436031
-0.18053201 -0.06224329 0.32590708
-0.19080693 -0.00496517 0.36926648
-0.18405816 -0.00353295 0.38497585
-0.25618431 -0.06586494 0.22207627
-0.19778764 -0.06161518 0.33231220
-0.22703528 -0.01226335 0.29607317
-0.25745514 -0.05883799 0.23922990
-0.20399141 -0.05869228 0.33193284
-0.22337851 -0.01899631 0.31088799
-0.25344345 -0.02625940 0.26481885
-0.19831315 -0.06060507 0.34114024
-0.23836040 -0.01671489 0.28337157
-0.23642531 -0.06292090 0.26605240
-0.20705971 -0.02827647 0.37099609
-0.24132493 -0.04013954 0.28692129
-0.20480344 -0.04486541 0.37404284
-0.23865888 -0.04410103 0.28961730
-0.18508935 -0.03278744 0.31723738
-0.16225705 -0.02326702 0.33893153
-0.14317203 -0.02872215 0.31869343
-0.16838074 -0.04144344 0.32906613
-0.16870543 -0.03505355 0.31928039
0.14234838 -0.03304523 0.12973163
0.13153771 -0.04479972 0.12628290
0.13634484 0.00281620 0.12634349
0.14296006 -0.03679062 0.21644557
0.14296633 -0.03674684 0.19110388
0.14230353 -0.04136409 0.19228996
0.12379441 0.03042478 0.12678069
-0.01581968 -0.00596545 0.12776148
0.14457756 -0.00497054 0.18240261
0.14570123 -0.00936884 0.22043753
0.14082959 -0.04249576 0.25318065
0.13647804 -0.05370762 0.24901786
0.14054243 -0.04685396 0.21365820
0.12975746 -0.06504051 0.15724549
0.09248107 -0.09243935 0.12876421
-0.01074195 0.01962335 0.13213588
0.13658822 0.02167268 0.22045307
0.12451024 0.03779936 0.19974755
0.13868207 -0.04325939 0.25596786
0.10021147 -0.09146954 0.17925817
0.10637146 -0.08685610 0.18552692
0.12443879 -0.07332470 0.17509690
0.02511214 0.05739935 0.22330886
0.01168646 0.04734423 0.14132401
0.03521825 0.06079103 0.14067708
0.04891726 0.06429081 0.13766232
0.05079393 0.06477026 0.15596008
0.06196416 0.06619918 0.16264565
0.07496838 0.06433251 0.24366556
0.06202310 0.06619070 0.15381572
0.09763002 0.05797288 0.23948477
0.11051121 0.05033398 0.18915738
0.09690133 0.05840500 0.13701378
0.06929876 -0.09994967 0.16747150
0.06798777 -0.10028457 0.16779940
0.06012192 -0.09939374 0.14963262
0.04141557 -0.09670848 0.20332536
0.06154266 -0.09959771 0.21506596
0.02946021 -0.09247281 0.23456678
0.01124058 -0.08166818 0.19989882
0.03130252 -0.09356538 0.17631815
0.00109694 -0.07128869 0.14625694
0.00542029 -0.07706127 0.13843007
-0.01340009 -0.04986628 0.18600960
-0.02006233 -0.02378860 0.16759163
-0.01834024 -0.03052923 0.20237604
-0.01935151 -0.01208973 0.24978851
-0.01656339 0.00733314 0.17948069
-0.02042066 -0.01953769 0.16663413
-0.00836240 0.02391404 0.13959970
-0.01098852 0.01948571 0.14750770
0.12426652 0.03673933 0.25205156
0.09389178 0.04965859 0.25781050
0.12792267 -0.05484180 0.25740302
0.11228032 0.04738600 0.25398952
-0.01825509 -0.02401679 0.25413749
0.03022022 0.05248856 0.25741410
0.03355480 -0.08778962 0.25712818
0.11646421 -0.08142587 0.23753460
0.10958343 -0.08614407 0.22135843
-0.02095487 -0.00593998 0.18295142
-0.02030289 -0.01110386 0.14202750
0.02011369 -0.08979125 0.19600677
0.14158258 0.00962429 0.17601039
0.14463878 0.00473230 0.20360096
0.13238877 0.03138513 0.18621199
0.13347614 0.02993325 0.14372452
0.10673996 0.05543148 0.23518965
0.10001856 0.05772704 0.19434081
0.07649434 0.06659950 0.15696059
0.07397321 0.06696140 0.16308345
0.04537851 -0.09976348 0.18963084
0.04522600 -0.09762926 0.15034558
0.04114970 0.06484631 0.23386593
0.08596938 -0.09823070 0.18938008
0.08626481 -0.09815525 0.16991048
0.01444360 0.05248380 0.15757534
0.01180010 0.05050398 0.15639573
-0.00714252 -0.06439246 0.18837555
-0.00000076 -0.07179108 0.19581249
0.14660227 -0.02873758 0.16487072
0.13441795 -0.06172207 0.14294405
0.13527900 -0.06055422 0.18968937
-0.01944634 -0.03614180 0.15519395
-0.01914174 -0.03207416 0.20177050
-0.00859755 0.02834207 0.14324397
0.10175935 -0.07209267 0.12359306
0.06319706 -0.08250142 0.12222890
0.01521214 -0.06155501 0.12224221
-0.00976462 -0.01443178 0.12611277
0.04395461 0.05277540 0.12605654
-0.03514956 -0.03094178 0.27613923
-0.07990572 -0.02628273 0.27473530
-0.09902349 0.00795316 0.29942334
-0.09523252 -0.06247451 0.34933674
-0.00483568 -0.00587198 0.27737099
0.00593536 -0.05616006 0.29341567
0.00504205 -0.03956432 0.36098611
-0.07598659 -0.05116470 0.28373802
-0.08675402 -0.05176950 0.28375491
-0.05187744 -0.04356404 0.36360779
-0.05830663 -0.04760765 0.36114082
-0.02493791 -0.03203565 0.36667484
-0.06943321 -0.03996766 0.36557510
-0.02572575 -0.00966301 0.36629924
-0.07271811 -0.01557342 0.36697075
-0.01082668 0.00371793 0.36067751
-0.09000349 -0.00367488 0.36276647
-0.01710077 0.01684816 0.34770694
-0.06235297 0.02288376 0.32427919
-0.02441519 0.02270173 0.33544451
-0.07593134 0.02099163 0.31303167
-0.02697653 0.02346757 0.31223252
-0.07738762 0.01177767 0.29270560
-0.00184144 0.01995052 0.29884237
-0.09482250 0.00076099 0.28350681
-0.07305797 0.00167024 0.28333181
-0.06626607 -0.06343208 0.29727718
-0.04988427 -0.05954808 0.29279056
-0.08646599 -0.07001282 0.31010455
-0.02811478 -0.06625852 0.30702528
-0.03276509 -0.06687494 0.33427736
-0.00652082 -0.06551763 0.33399931
-0.04842153 -0.05665384 0.35455754
0.03249870 0.00912864 0.29175696
0.02231178 0.00954419 0.29240003
0.04646407 0.01178824 0.29359365
0.07635524 -0.02410121 0.30262297
0.07529419 -0.00438930 0.34099606
0.07406081 0.01852400 0.32492194
0.07588136 -0.01529768 0.28299007
0.07711062 -0.03813442 0.34081465
0.03853304 -0.01463368 0.28130460
0.05758967 0.02284098 0.31709155
0.01657866 -0.02452520 0.36158508
0.00821944 -0.04695451 0.35194749
0.04722461 -0.04209152 0.35379124
0.00695753 -0.05121560 0.34739468
0.00989463 -0.05899661 0.33144349
0.05178282 -0.05855745 0.32081136
0.03299554 -0.05362158 0.30143604
0.00627581 -0.03977079 0.28633016
0.02503357 -0.02004191 0.28075528
0.06423248 -0.01777991 0.28072506
0.00707677 0.01876306 0.33287081
0.04113556 0.01526940 0.34391582
0.07150783 0.00520607 0.35540172
0.05984807 -0.00557726 0.36026496
-0.05377558 -0.03800826 0.28400841
-0.08043623 -0.03146425 0.28242353
-0.06586989 -0.04388952 0.28710893
-0.01110573 -0.00656815 0.28396448
-0.07822349 -0.05415935 0.29422352
-0.09232923 -0.06060833 0.30272639
-0.02807868 -0.00165083 0.28736216
-0.08066383 -0.06474758 0.31874642
-0.08790133 -0.06378324 0.31194949
-0.05138759 0.01230730 0.30317137
-0.01292999 -0.06017035 0.32906920
-0.01377728 0.01883073 0.31889439
-0.03497719 0.01611329 0.31098142
-0.04321560 -0.05319326 0.34754467
-0.04700341 0.01663773 0.32627678
-0.06301513 0.01581849 0.32606271
-0.04931612 -0.04727904 0.35317555
-0.04959596 0.00662496 0.34860525
-0.07539190 -0.03464891 0.36003047
-0.06637438 -0.02898432 0.36105925
-0.01675483 -0.00539933 0.35868612
-0.06651132 -0.01001001 0.35926735
-0.07855304 -0.02024939 0.36117238
0.05240936 0.04189979 0.25989711
0.03173239 0.03416654 0.24866095
0.12260735 -0.02208443 0.25210130
0.10973193 -0.05531850 0.25283363
0.01162194 -0.04808242 0.25262716
0.03032374 -0.06710535 0.25123492
-0.05540984 -0.01881578 0.39378735
0.06521762 -0.01232266 0.42475691
-0.06750581 -0.01946688 0.41294363
-0.00241676 -0.01596328 0.42943200
-0.06403774 -0.01928020 0.42742082
0.02154133 -0.01467366 0.40937084
-0.05092683 -0.01857447 0.40411797
0.02098890 -0.02303646 0.40182930
-0.03036649 -0.02580082 0.42205700
-0.07874805 -0.02840510 0.42755616
-0.06906912 -0.02788410 0.38156024
-0.07404155 -0.02815175 0.39598393
-0.02248802 -0.02537674 0.43217525
0.00374785 -0.02396451 0.40809593
-0.08124926 -0.02590970 0.36699599
-0.01413351 -0.02003191 0.40332565
0.03708177 -0.01620072 0.43264326
-0.02782973 -0.02292345 0.43264326
0.10730398 -0.01937163 0.25433007
0.08901224 -0.02035623 0.27404803
0.09861582 -0.01112517 0.28343701
0.10974064 -0.01099528 0.28682941
-0.10568205 -0.03699725 0.42620802
0.07386312 -0.02350918 0.42189464
-0.11650886 -0.03814997 0.42712766
-0.14475247 -0.03948908 0.42107740
0.03233670 -0.01937379 0.41954249
0.00701448 -0.03189069 0.43442976
-0.16351503 -0.04428606 0.42896459
-0.06477353 -0.02375061 0.41944081
-0.09904944 -0.03500088 0.43975571
-0.20386940 -0.03579815 0.41704422
-0.12448769 -0.04198112 0.43557447
-0.10603612 -0.01830178 0.42241973
-0.05620545 -0.03172967 0.44080570
-0.14012954 -0.03978436 0.44162318
0.04839677 -0.00659095 0.42674839
-0.01279641 -0.02354873 0.44362465
-0.14499071 -0.01905078 0.41950274
-0.23768598 -0.04261916 0.44387430
-0.01475104 -0.00957192 0.42818072
0.00432675 -0.01950255 0.44396815
-0.13728431 -0.03341323 0.44623154
0.07676902 -0.00415841 0.43288729
0.05975457 -0.01202577 0.44286099
-0.16627041 -0.01408227 0.43021724
-0.21691108 -0.02782620 0.44649127
-0.02973690 -0.01181308 0.43828437
-0.21248695 -0.02271669 0.44403291
-0.13872239 -0.01584182 0.44124955
0.02078580 -0.05015408 0.27288651
0.02439033 0.02920937 0.27288651
0.05886088 -0.01525317 0.27288651
0.07688771 -0.07031035 0.27288651
0.08942252 -0.05963378 0.27288651
0.10561315 -0.04259557 0.27288651
0.12421443 -0.00567939 0.27288651
0.10100827 -0.02546754 0.27288651
0.07688121 0.01873234 0.27288651
0.07920042 -0.04756942 0.27288651
0.05767277 0.00824327 0.27288651
0.03359151 -0.03286537 0.27288651
0.03154042 -0.06381460 0.27288651
0.01438297 0.02658592 0.27027509
0.03142620 -0.07280244 0.26795316
0.10901692 -0.06261068 0.26969486
0.10997466 0.02709849 0.26979342
0.02228094 0.03229430 0.26249498
0.04207256 -0.07859090 0.26249498
0.09320910 -0.00333602 0.33834442
0.09105732 -0.00179562 0.37832764
0.09727035 -0.00944156 0.37937048
0.08495076 0.00095226 0.29699799
0.09375395 -0.00974915 0.43304846
0.09788474 -0.02093888 0.32389906
0.07675238 0.00081862 0.29931223
0.08578580 -0.02911500 0.45205447
0.09443660 -0.02753891 0.37642893
0.07288099 -0.00038921 0.26082790
0.09519607 -0.01568332 0.40675533
0.07263516 -0.00483154 0.40079680
0.06692962 -0.01761542 0.41536725
0.07655580 -0.02958453 0.42432049
0.09209184 -0.02481092 0.41405180
0.09040283 -0.03077939 0.30874422
0.06607007 -0.00709254 0.29173914
0.08266670 -0.03361705 0.28532743
0.06410196 -0.01117094 0.28613281
0.06392682 -0.01963058 0.29803169
0.06584994 -0.02490492 0.29961291
0.07101445 -0.03040143 0.29976249
0.07931603 -0.03342392 0.35746190
-0.05463855 -0.02642862 0.41253713
-0.04995436 -0.00734216 0.41253713
0.07425965 -0.01239093 0.41253713
0.06261423 -0.00385830 0.41253713
0.01478317 -0.01357919 0.41253713
0.01264571 -0.02778687 0.41253713
0.05097201 -0.03580192 0.41004482
-0.05217548 -0.03837068 0.40851462
0.03073997 -0.01797893 0.40851462
0.06661391 -0.00343841 0.40851462
0.07106800 -0.02684115 0.40851462
0.04318902 -0.01042145 0.40851462
-0.03946088 -0.02011821 0.40851462
-0.08260473 -0.01686262 0.40518928
-0.07887310 0.00706841 0.40656045
-0.08755609 -0.01443088 0.41478527
-0.05263489 -0.02496322 0.44020647
-0.18317640 -0.03199000 0.44639391
-0.19308558 -0.03252339 0.45118690
-0.12294664 -0.02874795 0.44858623
-0.20603976 -0.03251318 0.46069166
-0.13604417 -0.02817617 0.43783003
-0.10227819 -0.02737647 0.45657769
-0.16338080 -0.02627814 0.44781226
-0.04049443 -0.01966342 0.45136335
-0.07251765 -0.02138717 0.44800434
-0.09832878 -0.02277653 0.43913898
-0.30888343 -0.03715876 0.42839342
-0.31220815 -0.02391792 0.44344553
-0.31189007 -0.02334372 0.44527251
-0.30992547 -0.05321419 0.43672302
-0.30174574 -0.00552431 0.43313658
-0.29121518 -0.00304904 0.39856249
-0.29227421 -0.03691425 0.38141781
-0.30209386 -0.06265038 0.39901933
-0.29236138 -0.06035624 0.44170091
-0.13102105 0.00941842 0.30738091
-0.12806568 -0.04548563 0.36547792
-0.13017517 -0.04697300 0.36504856
-0.12805200 -0.07264835 0.30824807
-0.13535923 0.01084353 0.29736191
-0.13324654 -0.02924782 0.36613968
-0.13214925 -0.04989677 0.35125738
-0.12919042 -0.01864589 0.35764500
-0.12649781 -0.04391671 0.32526296
-0.12874058 -0.00051657 0.31234455
-0.12758631 -0.02297018 0.34280032
-0.12635100 -0.04523854 0.30231273
-0.07105825 -0.01278705 0.28574502
-0.12886080 -0.02461110 0.28401440
-0.05220453 -0.03584992 0.28597131
-0.07049363 -0.00919627 0.28665227
-0.04704688 -0.04798830 0.29332095
-0.12863392 0.00370832 0.30072692
-0.08208938 0.00239609 0.29502171
-0.11041408 -0.05574501 0.29819602
-0.06615219 0.01308291 0.31613174
-0.07161878 -0.05965982 0.30758876
-0.07515166 -0.06099506 0.31333712
-0.08377065 0.01106816 0.33236209
-0.10871919 -0.06216617 0.33299494
-0.12291086 0.00267917 0.34441191
-0.09002703 -0.05903872 0.33838215
-0.06799601 -0.05653623 0.34034979
-0.08939793 -0.00158445 0.35073051
-0.06134357 -0.04567316 0.35187769
-0.09033630 -0.02222519 0.35906401
-0.08032900 -0.02300634 0.35932612
-0.06079020 -0.03067342 0.35828918
0.01442821 -0.07271595 0.11741713
-0.01296870 -0.04088601 0.10981715
0.02038652 -0.08198344 0.11013506
-0.03400738 -0.04528669 0.10732953
-0.02366564 -0.10320839 0.10425197
0.06472431 -0.09072032 0.12205143
-0.05417582 -0.06350490 0.10360551
-0.05253193 -0.09920700 0.09961810
-0.03640134 -0.10762077 0.10170641
0.03740279 -0.09788811 0.10891796
-0.03518029 -0.00752442 0.10751314
-0.07313107 -0.06920425 0.09830607
-0.09734197 -0.10001598 0.08264906
-0.05158521 -0.13364060 0.09171444
-0.02659605 -0.14498834 0.09510919
0.04623408 -0.11768612 0.10724458
-0.02671111 0.00724812 0.10794505
-0.07802594 -0.03358784 0.09948935
-0.09014868 -0.09007903 0.08873023
-0.11823196 -0.10975973 0.06447741
-0.06793157 -0.15650925 0.07456951
-0.03615693 -0.14196368 0.09377375
-0.00348742 -0.15999116 0.09464486
0.03969216 -0.14246950 0.10333934
-0.00935625 0.03291161 0.10841540
-0.05753371 0.02196589 0.10356340
-0.10876889 -0.02983123 0.08721808
-0.12106086 -0.07859007 0.07192975
0.02048879 0.04361129 0.11655613
-0.12711519 -0.12879638 0.04348500
-0.08971609 -0.16636439 0.05207573
-0.04979626 -0.18617125 0.06436329
-0.00780424 -0.18463783 0.08168016
0.02085215 -0.16741174 0.09511405
0.08815107 -0.12063384 0.10689834
-0.00670840 0.04001506 0.10817564
-0.07815613 0.01614045 0.09856921
-0.10128132 -0.01524487 0.09128505
-0.13282427 -0.06357063 0.06652481
-0.13320968 -0.09138338 0.05667128
-0.13540354 -0.13415518 0.02583110
-0.13030580 -0.14089149 0.02744753
-0.11552640 -0.16025081 0.02945499
-0.04810336 -0.19897123 0.05331135
-0.01651882 -0.19688901 0.06968052
0.03779758 -0.18137540 0.09037661
0.05976933 -0.15928535 0.09930812
0.07586256 -0.12812284 0.10598277
0.01944332 0.05939738 0.10840879
-0.03300644 0.06707613 0.10343337
-0.11118469 0.03950863 0.08137726
-0.13805583 -0.01098614 0.06614563
-0.15864226 -0.03360621 0.04226725
-0.14550874 -0.05233428 0.05469083
-0.16005617 -0.07977913 0.02456024
-0.13299692 -0.14735600 0.01659950
-0.10331788 -0.18971249 0.00288664
-0.10704412 -0.18563983 0.00286898
-0.08189617 -0.18758996 0.03910774
-0.01196826 -0.22025007 0.04909053
0.00985308 -0.21124975 0.06580463
0.05432773 -0.19754024 0.08224069
0.07761279 -0.17123635 0.09554272
0.09712701 -0.12109112 0.10636950
0.03167020 0.05590719 0.10989521
-0.01482871 0.08344948 0.10351575
-0.09606013 0.06445061 0.08355686
-0.13246900 0.02941636 0.06634742
-0.14489260 -0.02785280 0.05996462
-0.15237898 -0.01431940 0.05003806
-0.15449461 -0.07047836 0.03962758
-0.16881582 -0.08363658 -0.00146096
-0.14900368 -0.14090109 -0.05331510
-0.14995727 -0.13525136 -0.01519341
-0.15419331 -0.12878622 -0.01998470
-0.14031443 -0.15306154 -0.03319398
-0.12206651 -0.18049711 -0.07895099
-0.11175556 -0.18650016 -0.01472553
-0.13571310 -0.16587670 -0.08288413
-0.11023853 -0.19336018 -0.07786276
-0.06420972 -0.21675836 0.01261760
-0.04196333 -0.21452302 0.03876897
0.03140955 -0.23498103 0.04489873
0.04449721 -0.20580827 0.07554587
0.08455619 -0.17730147 0.09247536
0.12891603 -0.15732296 0.09562408
0.12201279 -0.11835711 0.10504974
0.06329058 0.05706957 0.11562832
0.01603052 0.07968381 0.10684612
-0.03762264 0.09160667 0.09764997
-0.10293490 0.07549790 0.07574237
-0.11463513 0.07062723 0.06872284
-0.14654687 0.02373792 0.05258473
-0.16017520 -0.02148582 0.04035578
-0.17196524 -0.04925054 0.01033812
-0.15803158 -0.12258314 -0.02122650
-0.17206195 -0.08538240 -0.03075644
-0.17619854 -0.07927695 -0.06337827
-0.17072079 -0.09424106 -0.06235639
-0.13958195 -0.16065019 -0.14181679
-0.14174107 -0.15770093 -0.18016763
-0.14868933 -0.14553712 -0.13480721
-0.15306833 -0.13879712 -0.16469227
-0.15601736 -0.13445823 -0.19746356
-0.15202725 -0.13995542 -0.12954438
-0.15518653 -0.13623905 -0.22349465
-0.13728103 -0.16605283 -0.24363847
-0.11029986 -0.19481258 -0.16529427
-0.10340990 -0.20197947 -0.13425921
-0.13246781 -0.17113964 -0.21476510
-0.12476014 -0.17912123 -0.17710130
-0.13183796 -0.17059262 -0.11328327
-0.13594636 -0.16664769 -0.15875201
-0.12217166 -0.18086337 -0.08745656
-0.13299316 -0.17098519 -0.24929965
-0.11328775 -0.19168745 -0.17734374
-0.07926349 -0.21851426 -0.07457454
-0.08152578 -0.21293680 -0.01764033
-0.09519317 -0.20547029 -0.05469526
-0.04113888 -0.23653246 -0.00962294
-0.03471819 -0.23614357 0.00059927
0.02634323 -0.24145053 0.03245277
0.06947021 -0.22344330 0.06119457
0.07545424 -0.21918263 0.06543364
0.13535792 -0.18291715 0.08228097
0.13287152 -0.15799852 0.09489119
0.14784107 -0.09571467 0.10537684
0.06439012 0.06308990 0.10974347
0.02854601 0.10674648 0.10327224
-0.04127286 0.11722608 0.08849730
-0.08759791 0.11037916 0.06977429
-0.13536951 0.07721360 0.04478602
-0.12998763 0.07850866 0.05009066
-0.15977851 0.02223205 0.03481189
-0.17630735 0.00580303 0.00059693
-0.18416861 -0.03471394 -0.07849070
-0.18184808 -0.03266133 -0.03155323
-0.18034399 -0.03984188 -0.02447735
-0.17743951 -0.06827982 -0.05078695
-0.16513515 -0.11683887 -0.23278922
-0.16682905 -0.11241645 -0.24341774
-0.17572853 -0.08506703 -0.12879975
-0.17300883 -0.09321927 -0.15530752
-0.17164901 -0.09747968 -0.17619340
-0.16592374 -0.11118264 -0.08871488
-0.16932839 -0.10558708 -0.24650490
-0.16986358 -0.10326618 -0.21160077
-0.13813856 -0.16429147 -0.29252723
-0.14252999 -0.15648347 -0.33967957
-0.15976018 -0.12830774 -0.32270056
-0.15862653 -0.12990516 -0.34487113
-0.15922204 -0.12995192 -0.26048467
-0.15488234 -0.13661428 -0.30040514
-0.14458099 -0.15253630 -0.38637924
-0.14100376 -0.15813015 -0.41091070
-0.11709423 -0.18744847 -0.35762310
-0.11581842 -0.18846469 -0.39827386
-0.12240689 -0.18255989 -0.25845638
-0.13323805 -0.17018747 -0.31302527
-0.13324103 -0.17018114 -0.31335685
-0.12545380 -0.17865784 -0.31879497
-0.10954090 -0.19591925 -0.33635950
-0.10430340 -0.20128357 -0.37597680
-0.07335683 -0.22502504 -0.23249489
-0.09637058 -0.20823617 -0.24023789
-0.08448283 -0.21700479 -0.24569410
-0.07618289 -0.22263458 -0.20117259
-0.07567302 -0.22259432 -0.16054164
-0.07379361 -0.22427756 -0.19055030
-0.07616966 -0.22212017 -0.14973290
-0.09520768 -0.20854963 -0.18734373
-0.09431866 -0.20917076 -0.18435368
-0.04056799 -0.23954654 -0.05410823
-0.03837004 -0.24029072 -0.04945427
-0.02040600 -0.24652243 -0.01385399
0.00552008 -0.24890190 0.00377145
-0.00250610 -0.24929921 -0.00384705
0.06453118 -0.24797103 0.02503686
0.08413405 -0.22269803 0.06045950
0.12452196 -0.20990306 0.06492485
0.14976835 -0.15248381 0.09293428
0.15761355 -0.13384797 0.09692647
0.16187966 -0.08395737 0.10469966
0.08385187 0.06477819 0.10899978
0.05594401 0.11035380 0.10346361
-0.01600619 0.12949793 0.09022127
-0.06265983 0.13530208 0.06942203
-0.09496897 0.12377883 0.05580341
-0.09859647 0.12562798 0.05087351
-0.14213398 0.08135236 0.03154197
-0.16810897 0.05182113 -0.00180571
-0.18238509 0.00320352 -0.06115587
-0.18079275 -0.02355870 -0.01065408
-0.18071860 0.00930853 -0.03615762
-0.18360871 -0.01182926 -0.07089733
-0.17884517 -0.07720944 -0.19222875
-0.18386456 -0.04684306 -0.23307228
-0.17932090 -0.06920703 -0.10111950
-0.17931351 -0.06880976 -0.09286781
-0.17954263 -0.06732091 -0.09282716
-0.18266878 -0.04841484 -0.11839704
-0.18168542 -0.05993386 -0.21362427
-0.18480635 -0.04023042 -0.22377805
-0.17015976 -0.10067348 -0.40112641
-0.16447824 -0.11775173 -0.32655707
-0.17098033 -0.10079528 -0.27247316
-0.16372004 -0.12104183 -0.26214799
-0.17366129 -0.09326832 -0.27901340
-0.17679456 -0.08235621 -0.40059647
-0.16765350 -0.10736863 -0.41339031
-0.16460952 -0.11698164 -0.34849945
-0.14979562 -0.13919207 -0.46496662
-0.15038857 -0.14067541 -0.43826577
-0.14812094 -0.14472571 -0.43484786
-0.13812777 -0.16169004 -0.42938757
-0.12316563 -0.17808032 -0.44791865
-0.13064018 -0.17039888 -0.44081244
-0.11754253 -0.18340071 -0.45972878
-0.09235185 -0.21057768 -0.34540182
-0.09317029 -0.21010730 -0.32887450
-0.07025357 -0.22706246 -0.30863246
-0.06943400 -0.22707781 -0.38334131
-0.08287699 -0.21698144 -0.41441709
-0.07445267 -0.22326578 -0.40039784
-0.09072467 -0.21224813 -0.28440642
-0.08370167 -0.21748888 -0.27250046
-0.05624705 -0.23537545 -0.22976065
-0.05483061 -0.23509067 -0.12527131
-0.04881470 -0.23775138 -0.10794970
-0.05645584 -0.23402402 -0.09161705
-0.02724099 -0.24836333 -0.16379313
-0.03165450 -0.24641220 -0.17659327
-0.05853724 -0.23332229 -0.12172442
-0.04814924 -0.23890643 -0.20088428
-0.01669906 -0.25082588 -0.06543095
0.00500043 -0.25428557 -0.03313787
-0.00610173 -0.25065133 -0.01704626
-0.00895467 -0.25276509 -0.06623036
0.05047096 -0.25378501 0.00970062
0.08400455 -0.24874358 0.02204604
0.09790041 -0.24787660 0.01968371
0.12311213 -0.21806042 0.05676471
0.15284181 -0.19058770 0.07094114
0.17564797 -0.14259334 0.08870123
0.16877958 -0.09898401 0.10187992
0.15082592 -0.02653716 0.10831518
0.07816721 0.07914140 0.10762901
0.03014426 0.12509200 0.09843691
0.00581975 0.13848138 0.09052259
-0.03558807 0.14273001 0.07724006
-0.08737647 0.12309159 0.06290374
-0.11709490 0.11678740 0.03744973
-0.15697768 0.07768774 0.00314112
-0.16025627 0.07107563 0.00259496
-0.17848343 0.03520413 -0.07737112
-0.17091471 0.06004640 -0.05121822
-0.17267504 0.06046158 -0.08379202
-0.18591300 -0.02178212 -0.21874057
-0.18556988 -0.01219971 -0.22990006
-0.18428692 -0.00455948 -0.11609598
-0.18374833 0.01012143 -0.13161652
-0.18426716 0.00209714 -0.15041426
-0.18431896 0.01146830 -0.20841695
-0.18492681 -0.02055477 -0.10563191
-0.18498904 0.00007278 -0.22700058
-0.18489003 -0.00688437 -0.17658150
-0.18070850 -0.06193561 -0.40743962
-0.18389335 -0.04247238 -0.37845629
-0.18440831 -0.03886883 -0.38477877
-0.18262345 -0.05372980 -0.30573338
-0.17988545 -0.07342037 -0.25935835
-0.18425784 -0.04091519 -0.35898697
-0.18346214 -0.04450227 -0.39697045
-0.18292502 -0.04776163 -0.40241915
-0.16493076 -0.11190212 -0.43820438
-0.16981202 -0.10023406 -0.42528012
-0.16376257 -0.11442313 -0.44322938
-0.15223244 -0.12785012 -0.49010307
-0.11182708 -0.18308611 -0.49102926
-0.06493033 -0.22686167 -0.47229192
-0.08751960 -0.21015561 -0.47481379
-0.08395102 -0.21436812 -0.44787437
-0.05901869 -0.23395966 -0.29877365
-0.05896647 -0.23393968 -0.30514628
-0.04371692 -0.24038632 -0.40491703
-0.05107977 -0.23701543 -0.39375937
-0.02067574 -0.25206819 -0.27748242
-0.03979576 -0.24254459 -0.35883504
-0.05193096 -0.23701020 -0.33737582
-0.05262323 -0.23704618 -0.28575262
-0.00899927 -0.25498635 -0.22585553
0.00536135 -0.25818342 -0.18873528
0.02575088 -0.26333937 -0.20891878
-0.00657025 -0.25456700 -0.10608981
0.00519577 -0.25783879 -0.15278572
-0.01163593 -0.25334066 -0.10753750
0.00014466 -0.25682989 -0.17951000
-0.00134626 -0.25674883 -0.21301612
0.03949730 -0.26059648 -0.03611035
0.06664032 -0.26226214 -0.04391554
0.06350644 -0.26031470 -0.01143565
0.03403727 -0.26140589 -0.05513191
0.09595691 -0.25172362 0.00998296
0.12719351 -0.23551497 0.03125144
0.13371903 -0.22785132 0.04059985
0.17563757 -0.18910986 0.06159103
0.19935361 -0.16571102 0.06538313
0.19791472 -0.12390628 0.08692221
0.18539840 -0.06591608 0.10254946
0.15311372 -0.02285089 0.10812654
0.11230842 0.07376754 0.10715717
0.08127749 0.12509035 0.09924050
0.03543932 0.14810136 0.08959337
-0.01589756 0.15852189 0.07378034
-0.04443843 0.16474347 0.05522453
-0.08653923 0.14810583 0.04043940
-0.12730598 0.13414113 -0.00834807
-0.13989621 0.11012962 0.00507866
-0.16289374 0.08052052 -0.05827461
-0.15030682 0.10794666 -0.06250881
-0.15666392 0.09399052 -0.05957290
-0.18063131 0.03317169 -0.23244101
-0.17701304 0.04690489 -0.20164025
-0.17792365 0.04010423 -0.11272661
-0.17487353 0.05253510 -0.11145332
-0.17525497 0.05326490 -0.17763273
-0.17466965 0.05483951 -0.15394996
-0.17930272 0.03358035 -0.08719308
-0.18083963 0.03183806 -0.21851791
-0.18290976 0.02226452 -0.18653435
-0.18453053 -0.00210226 -0.37359741
-0.18617946 -0.02628379 -0.28644302
-0.18511155 0.00009374 -0.26600081
-0.18448591 0.01408537 -0.26450869
-0.18597671 -0.01918290 -0.26754659
-0.18504763 0.00237812 -0.25971559
-0.18580076 -0.02930910 -0.36801371
-0.18459889 -0.00924774 -0.41406113
-0.17823610 -0.06360316 -0.46194413
-0.17821413 -0.07755285 -0.41795689
-0.17846262 -0.05565771 -0.48257321
-0.17073324 -0.08840297 -0.48390427
-0.13440028 -0.13998641 -0.50521356
-0.07319337 -0.21544106 -0.49223700
-0.04666679 -0.23745038 -0.44525144
-0.02328036 -0.24717441 -0.46855274
-0.05718535 -0.23238766 -0.44782370
-0.00535011 -0.25580725 -0.29796359
-0.00771352 -0.25543994 -0.26560283
0.01996588 -0.26152310 -0.37079453
0.02563376 -0.26299649 -0.35732982
0.01407845 -0.25980794 -0.41316965
0.00727638 -0.25872865 -0.32343853
-0.00799671 -0.25513691 -0.30154124
0.01113373 -0.25991416 -0.28618032
0.05709716 -0.26532149 -0.23577778
0.06709439 -0.26574975 -0.23268496
0.04960506 -0.26392707 -0.10761041
0.07080561 -0.26544327 -0.17495957
0.05170147 -0.26438037 -0.15114242
0.06377870 -0.26438224 -0.08474833
0.05620725 -0.26455292 -0.14726466
0.06262968 -0.26549453 -0.22629064
0.06622920 -0.26585522 -0.25028104
0.09732167 -0.26037362 -0.06078463
0.09168471 -0.25915387 -0.02360914
0.08024079 -0.26074356 -0.02051345
0.14159393 -0.24185808 0.00602094
0.13584694 -0.24445532 0.00440609
0.16662434 -0.22848031 0.01767096
0.21400213 -0.17619537 0.04465415
0.22052664 -0.13187155 0.07098321
0.20165735 -0.09702530 0.09365988
0.20270398 -0.05139051 0.09882399
0.18697923 -0.01387657 0.10396668
0.11505550 0.05944072 0.10797466
0.09805954 0.13301452 0.09580808
0.08335377 0.14906707 0.08988074
0.02326304 0.17023872 0.07441929
-0.00825826 0.18163146 0.05531924
-0.07418290 0.17195165 0.02177821
-0.06081250 0.18126534 0.01985948
-0.09452462 0.15881562 0.01423748
-0.12903947 0.13910991 -0.08048639
-0.13200396 0.13147514 -0.04226192
-0.13909513 0.12021768 -0.02541297
-0.13584664 0.12728709 -0.05349296
-0.16452822 0.08216095 -0.17303918
-0.17004690 0.06953231 -0.12933166
-0.15732077 0.09765928 -0.17877062
-0.16472363 0.08055730 -0.11179769
-0.15754530 0.09635473 -0.13617952
-0.15314105 0.10757716 -0.23010696
-0.16222659 0.08705820 -0.17218445
-0.16976619 0.07147261 -0.19855379
-0.18090129 0.03074953 -0.32797062
-0.17688504 0.04651039 -0.35299298
-0.17714092 0.04579612 -0.34050572
-0.17737645 0.04624078 -0.28759110
-0.17467517 0.05506555 -0.37115490
-0.17786556 0.04304626 -0.33246386
-0.18086654 0.03013947 -0.35624230
-0.18168175 0.02630306 -0.37511075
-0.18202728 -0.02090984 -0.48181275
-0.18407938 -0.00376279 -0.42267570
-0.18273255 -0.01750170 -0.46384528
-0.17602888 -0.07069255 -0.48315594
-0.15917131 -0.08188836 -0.50730491
-0.11485910 -0.15114100 -0.51547503
-0.06951863 -0.21120301 -0.50198072
-0.05345661 -0.22707923 -0.49441576
0.01111474 -0.25673354 -0.46464607
0.00707873 -0.25571164 -0.46535954
-0.00825371 -0.25403526 -0.42325467
0.02812258 -0.26381740 -0.30399564
0.05786660 -0.26525119 -0.29073688
0.07516515 -0.26552641 -0.37132996
0.04397703 -0.26408970 -0.37468746
0.06037136 -0.26469204 -0.39708972
0.03793529 -0.26369929 -0.39305952
0.02875809 -0.26326376 -0.39606977
0.02997475 -0.26342896 -0.37868151
0.08235552 -0.26436430 -0.12777919
0.11022415 -0.26069522 -0.20303564
0.10699328 -0.26039907 -0.10753021
0.11060113 -0.26047832 -0.18393405
0.11653482 -0.25942737 -0.16751231
0.11263447 -0.26038125 -0.20995009
0.09311508 -0.26335225 -0.20547728
0.11122280 -0.26086339 -0.24177031
0.12604544 -0.25336906 -0.02414838
0.14840475 -0.24856645 -0.07989791
0.14971486 -0.24789314 -0.07652752
0.15563872 -0.24303856 -0.03063250
0.18942514 -0.22419780 -0.00908919
0.20343044 -0.19258504 0.03679265
0.22097638 -0.14730933 0.06297528
0.23655379 -0.13425085 0.05703272
0.23615924 -0.08303005 0.07934104
0.22293675 -0.04905432 0.09180557
0.18935549 0.00108095 0.10330576
0.13238710 0.02111860 0.10988438
0.12946925 0.07896818 0.10518341
0.09396116 0.14836764 0.08923762
0.08159836 0.18317468 0.06641559
0.03584808 0.19928150 0.04687770
0.02460211 0.19579974 0.04899770
0.00608420 0.19941030 0.04023142
-0.04653133 0.19810155 -0.00125422
-0.10996407 0.15960640 -0.07803921
-0.10920314 0.15657541 -0.02848558
-0.11576947 0.14954314 -0.01470531
-0.09194894 0.17572898 -0.07367339
-0.14252207 0.12294614 -0.21884568
-0.13048840 0.13962956 -0.23790953
-0.13282114 0.13558362 -0.17581780
-0.13427964 0.13240856 -0.09056773
-0.12487727 0.14731221 -0.23985478
-0.14390773 0.11969174 -0.12073901
-0.14117929 0.12431602 -0.18560162
-0.15088311 0.11087926 -0.17141722
-0.15677500 0.09811572 -0.39580590
-0.17048821 0.06890611 -0.39130843
-0.15446669 0.10439324 -0.30522102
-0.16451865 0.08354259 -0.26431802
-0.16162443 0.08868790 -0.33369222
-0.16392347 0.08440294 -0.29185876
-0.16893792 0.07347057 -0.30708909
-0.17039937 0.07030282 -0.31028655
-0.17502147 0.04082689 -0.47504494
-0.17269552 0.06003309 -0.42689556
-0.17542529 0.04454138 -0.44838846
-0.17803240 -0.02693834 -0.49319571
-0.17466548 -0.03377209 -0.49893188
-0.15498197 -0.07876277 -0.51227701
-0.10562121 -0.15056884 -0.52039915
-0.08480595 -0.18869378 -0.51229978
0.00663613 -0.25382686 -0.48507816
0.03302983 -0.26056698 -0.47504336
0.07216766 -0.26475671 -0.42461443
0.06824896 -0.26384485 -0.43995038
0.07843967 -0.26547143 -0.33578715
0.09487026 -0.26280773 -0.35637331
0.10281475 -0.26203158 -0.28627291
0.10602681 -0.26136068 -0.31378159
0.11268453 -0.26019514 -0.33560458
0.08623617 -0.26476511 -0.25833863
0.08149856 -0.26524439 -0.29757383
0.08159114 -0.26529032 -0.28815702
0.07954663 -0.26480380 -0.41352329
0.13636741 -0.25360107 -0.13179420
0.13298669 -0.25469127 -0.11649879
0.14647016 -0.25060073 -0.20698529
0.17020050 -0.24191312 -0.19591713
0.15222064 -0.24885699 -0.24566419
0.15465668 -0.24764882 -0.20833521
0.12572071 -0.25728697 -0.11252273
0.12974930 -0.25634226 -0.17130966
0.18224844 -0.22933052 -0.01836260
0.20525408 -0.21913731 -0.07644975
0.20851138 -0.21488711 -0.04145855
0.21245763 -0.19855860 0.01706405
0.20999935 -0.20609088 0.00408715
0.23613423 -0.16319245 0.03359457
0.24882746 -0.11389370 0.05694108
0.25901708 -0.06896739 0.06459798
0.23597032 -0.00998272 0.08670405
0.19111493 0.01377367 0.10265683
0.17723030 0.02682569 0.10421140
0.15894973 0.06642202 0.10341225
0.15205103 0.14206626 0.08177679
0.10573441 0.17293902 0.07146345
0.05122141 0.20103838 0.04760581
0.05374532 0.19230185 0.05817128
0.05061509 0.20857683 0.03650963
0.00069452 0.21846233 -0.00758745
-0.07584137 0.18650143 -0.05930908
-0.06168804 0.19273524 -0.02300082
-0.06678701 0.18990828 -0.02713464
-0.05425655 0.20004767 -0.06612357
-0.12071229 0.15131825 -0.17898910
-0.11068123 0.16051623 -0.18239842
-0.10298180 0.16654840 -0.09265809
-0.08727838 0.18232563 -0.22181427
-0.09313612 0.17566834 -0.10426481
-0.10196692 0.16842221 -0.17775705
-0.09383827 0.17653459 -0.23971924
-0.10018425 0.17080267 -0.24538063
-0.15012321 0.11143368 -0.40292645
-0.13049564 0.13809749 -0.41371736
-0.13590062 0.13213442 -0.28170198
-0.12511131 0.14669296 -0.29685485
-0.13564530 0.13227479 -0.30115581
-0.13310525 0.13601422 -0.27553108
-0.13439351 0.13289624 -0.40278366
-0.14851728 0.11418332 -0.35067460
-0.16018140 0.08482170 -0.46803075
-0.15742347 0.09274405 -0.44998237
-0.14967734 0.10774517 -0.46361136
-0.17123464 0.03300419 -0.49551201
-0.17343161 0.01161425 -0.49891832
-0.15386760 -0.05824500 -0.51645982
-0.11094271 -0.11355963 -0.52626693
-0.08247503 -0.13461314 -0.52864075
-0.03440911 -0.21976979 -0.51298356
0.01515159 -0.24815707 -0.50068665
0.10204625 -0.26093408 -0.42526674
0.11849441 -0.25611934 -0.47239655
0.09521041 -0.25986597 -0.46912211
0.08401910 -0.26278406 -0.44445327
0.15137550 -0.24816334 -0.40998313
0.13916099 -0.25294253 -0.35682148
0.14664030 -0.25086603 -0.26290798
0.14944869 -0.24947210 -0.31903672
0.15631774 -0.24674292 -0.35511535
0.16401616 -0.24435827 -0.29523805
0.13799486 -0.25343877 -0.34580243
0.13389087 -0.25518990 -0.30631563
0.19393811 -0.22706977 -0.14161129
0.20082024 -0.22247593 -0.09835326
0.19264427 -0.22841343 -0.19968496
0.19444874 -0.22757666 -0.22659285
0.19911346 -0.22420339 -0.17026640
0.19605505 -0.22682467 -0.24980967
0.19454354 -0.22628482 -0.09819276
0.18904966 -0.22998177 -0.13582364
0.22132322 -0.20476556 -0.05491578
0.24658453 -0.18259485 -0.06684913
0.24411461 -0.18583855 -0.07999266
0.21418613 -0.21194306 -0.06369457
0.26341185 -0.14203742 0.01473082
0.26739815 -0.10516422 0.04031146
0.27811164 -0.05157084 0.04741319
0.27625394 -0.07087433 0.04400309
0.25189513 -0.01508929 0.07625120
0.23813230 0.02647812 0.08282380
0.16898322 0.04759929 0.10391319
0.18157685 0.07804604 0.09650693
0.17438260 0.12348980 0.08319321
0.14713523 0.16216831 0.06873551
0.11334878 0.19182979 0.05060273
0.07385422 0.21231289 0.02758677
0.04116849 0.22540429 -0.00860276
0.00483051 0.21823576 -0.00345051
-0.00138992 0.22058694 -0.04703862
-0.01546903 0.21567363 -0.05014894
-0.03871188 0.20920439 -0.08309086
-0.07659146 0.18912673 -0.23569340
-0.06957103 0.19283354 -0.17795151
-0.04753201 0.20660628 -0.21887034
-0.05395095 0.20236258 -0.18278584
-0.06325835 0.19628578 -0.13841954
-0.05398504 0.20245934 -0.19500361
-0.08615474 0.18312000 -0.21477474
-0.07979156 0.18651743 -0.16635682
-0.10533679 0.16573909 -0.30349895
-0.11694432 0.15511946 -0.30583480
-0.10929766 0.16247176 -0.26265049
-0.08666546 0.18193153 -0.40371391
-0.10210231 0.16844225 -0.33276430
-0.08869812 0.18125968 -0.26532856
-0.09939566 0.17019282 -0.41702023
-0.12085844 0.15133913 -0.32991707
-0.11722384 0.15501396 -0.28833750
-0.13638568 0.12914832 -0.42826587
-0.12307956 0.14431144 -0.46525091
-0.12983057 0.13431555 -0.47495702
-0.15028340 0.09139054 -0.49625731
-0.15355784 0.01132655 -0.51880556
-0.14558655 -0.04679351 -0.52205002
-0.08794980 -0.12482471 -0.52885801
-0.06800865 -0.16889006 -0.52602512
-0.02282685 -0.20976241 -0.52186775
0.03241588 -0.24962950 -0.50343084
0.09202013 -0.25777206 -0.48754287
0.13315958 -0.25262082 -0.45851207
0.13761196 -0.25224066 -0.43428993
0.12469967 -0.25740635 -0.42463043
0.20254970 -0.22182943 -0.39823371
0.17560738 -0.23811316 -0.40800780
0.20724496 -0.21901669 -0.39313897
0.21117446 -0.21733999 -0.29726335
0.19426364 -0.22726838 -0.34294564
0.20710158 -0.21927011 -0.37063721
0.18904197 -0.23034953 -0.35495731
0.18200299 -0.23500174 -0.30368549
0.21380022 -0.21475461 -0.16585678
0.23314533 -0.19620590 -0.08648032
0.22748941 -0.20253286 -0.19092022
0.23742253 -0.19391884 -0.23195629
0.24266595 -0.18905966 -0.22556688
0.24056515 -0.19039080 -0.17279294
0.24104008 -0.18940103 -0.12282762
0.24247426 -0.18785204 -0.10132032
0.21217763 -0.21598788 -0.14353326
0.26417342 -0.15941358 -0.07340560
0.24862516 -0.17705934 -0.03541961
0.25473255 -0.17150535 -0.06500433
0.28365594 -0.11312164 -0.00195913
0.28271943 -0.12012336 -0.00901129
0.28316757 -0.05091760 0.04141982
0.26838183 -0.04254717 0.06073710
0.24656439 0.01778923 0.07783230
0.21365985 0.03488976 0.09381359
0.19025859 0.04927588 0.09907173
0.18861869 0.09462115 0.08916458
0.18571472 0.12706216 0.07628196
0.16668606 0.17769922 0.04383944
0.12766680 0.20062365 0.03281804
0.07495971 0.21836235 0.01538978
0.05505487 0.22401343 -0.00037342
0.04183530 0.22970971 -0.07859071
0.04807201 0.22984089 -0.06381696
0.01909685 0.22397090 -0.03881329
-0.01192292 0.22037937 -0.24489380
-0.02799881 0.21381982 -0.16025917
-0.00585004 0.22190830 -0.16827968
-0.02266046 0.21511185 -0.08696347
-0.01371022 0.21904781 -0.16657491
-0.00654148 0.22149156 -0.14923914
-0.03035801 0.21240738 -0.09637319
-0.02554333 0.21550199 -0.25102040
-0.02902586 0.21344508 -0.15992266
-0.05985578 0.19907176 -0.30326694
-0.07032639 0.19293246 -0.27389336
-0.05088317 0.20464922 -0.28562409
-0.06203736 0.19735259 -0.35666549
-0.04498833 0.20833452 -0.27119318
-0.06817212 0.19318597 -0.41650292
-0.08590664 0.18301123 -0.33650109
-0.06248201 0.19759017 -0.28801939
-0.10021204 0.16789207 -0.44143444
-0.09757780 0.16940697 -0.45518985
-0.10413244 0.16534097 -0.42554352
-0.13453832 0.12442787 -0.48698542
-0.14718926 0.04825188 -0.51723319
-0.14183322 -0.02035957 -0.52463388
-0.10997298 -0.07059774 -0.52911782
-0.07662695 -0.08907682 -0.52755767
-0.03225026 -0.16248681 -0.52956629
-0.00366916 -0.21366128 -0.52355063
0.04396911 -0.24192344 -0.51246774
0.15620118 -0.23771687 -0.49513018
0.19126859 -0.22659427 -0.45218408
0.20565146 -0.21844947 -0.44169426
0.19042867 -0.22805841 -0.43512276
0.23887828 -0.19173566 -0.37886360
0.23840559 -0.19215223 -0.38062429
0.23527220 -0.19536249 -0.33984527
0.22963196 -0.20076229 -0.31071687
0.24463549 -0.18687581 -0.33241463
0.24797022 -0.18314566 -0.41246384
0.24058822 -0.19041762 -0.35041186
0.21573800 -0.21335073 -0.32229334
0.23564705 -0.19437253 -0.41552919
0.26831445 -0.15605454 -0.17528820
0.27376255 -0.14830807 -0.15275666
0.27246737 -0.14934039 -0.09989327
0.25045472 -0.17917882 -0.08587175
0.26729262 -0.15636167 -0.09708777
0.25483736 -0.17380071 -0.12913738
0.25410751 -0.17618632 -0.22911669
0.26995772 -0.15364383 -0.16315623
0.29210177 -0.10601976 -0.05127436
0.27832147 -0.13109659 -0.01809613
0.27781108 -0.13529424 -0.04184008
0.30053303 -0.05776776 -0.00131544
0.29537323 -0.07308087 0.00325546
0.28912497 -0.02103555 0.03367712
0.28313094 -0.00233691 0.04425236
0.24836242 0.05615222 0.06759345
0.20697492 0.08192019 0.08571492
0.19491869 0.12099163 0.07483303
0.17383909 0.16546804 0.05312675
0.18748209 0.16279152 0.04588154
0.15337762 0.19681691 0.02299425
0.13144723 0.21172996 0.00607149
0.05762129 0.22953530 -0.06063254
0.07829230 0.22799176 -0.04974011
0.08991051 0.22753479 -0.05100568
0.07112624 0.22769715 -0.03858808
0.01664111 0.22741483 -0.23647287
0.01142181 0.22610764 -0.17599903
0.04063041 0.23019424 -0.12611878
0.01787429 0.22664613 -0.12116657
0.02732256 0.22780839 -0.08583292
0.03668343 0.22991405 -0.16557644
0.03969316 0.23096369 -0.23602889
0.04027608 0.23110051 -0.24167876
-0.04108442 0.20950706 -0.30913943
-0.04034168 0.20973350 -0.31545317
-0.00492240 0.22234681 -0.34660092
-0.00342581 0.22298306 -0.33254722
-0.00194994 0.22385854 -0.28178278
-0.01931299 0.21691006 -0.38037106
-0.03873635 0.20999596 -0.36287588
-0.04203279 0.20880814 -0.36204681
-0.05522789 0.20027415 -0.43111062
-0.04797160 0.20506306 -0.42424923
-0.04582015 0.20408733 -0.46504524
-0.10698024 0.15669334 -0.48711914
-0.11675505 0.13515764 -0.50231767
-0.12585387 0.09321810 -0.51871812
-0.12485550 -0.00342581 -0.52836108
-0.11282199 -0.03843544 -0.52936190
-0.05651648 -0.09703749 -0.52214462
-0.02640255 -0.15297480 -0.52861804
0.02588383 -0.20104362 -0.52845246
0.04543964 -0.22125013 -0.52438062
0.14175953 -0.23243269 -0.50912118
0.19695184 -0.21755251 -0.49099618
0.21283874 -0.21397260 -0.43617874
0.23690763 -0.19135550 -0.44603509
0.22184137 -0.20422612 -0.45974049
0.27688673 -0.14449432 -0.34007648
0.27316651 -0.14980549 -0.31805855
0.26605657 -0.15999815 -0.27202687
0.26483607 -0.16172594 -0.26617509
0.25399011 -0.17558287 -0.35420021
0.26708114 -0.15828232 -0.30177146
0.26054698 -0.16604432 -0.40964115
0.27442011 -0.14765707 -0.35903269
0.28657711 -0.12405008 -0.18283312
0.29270077 -0.11032741 -0.14931785
0.28244123 -0.13343590 -0.21153772
0.27913004 -0.14064904 -0.21897234
0.28778830 -0.12058970 -0.13769035
0.27928680 -0.13883781 -0.14275238
0.29536188 -0.10432784 -0.13288869
0.28256860 -0.13359699 -0.23388790
0.30553859 -0.06342198 -0.07605176
0.29751793 -0.08456656 -0.02617436
0.29713035 -0.08306586 -0.01297400
0.30569875 -0.05889989 -0.05951001
0.30320179 -0.04891320 -0.00450383
0.29369465 0.00762886 0.02307987
0.28438085 0.02995685 0.03396535
0.26589349 0.04787472 0.05279817
0.22250563 0.08449487 0.07599655
0.22568327 0.11216417 0.05978792
0.20355499 0.16641973 0.02469002
0.15720025 0.20009728 0.01224038
0.14511719 0.20932847 0.00149112
0.10519652 0.22563480 -0.05524185
0.12314361 0.22268380 -0.08038366
0.12630850 0.22167736 -0.07631332
0.07339500 0.23037830 -0.11368886
0.06161591 0.23074032 -0.09271372
0.07417439 0.23109378 -0.20496406
0.09581134 0.22948195 -0.12840338
0.09726052 0.22917512 -0.09909958
0.07988417 0.23041674 -0.15416004
0.06790812 0.23157273 -0.22861065
0.06238845 0.23136957 -0.17346150
0.05666111 0.23202275 -0.22125784
0.01077465 0.22659144 -0.26057896
0.01305962 0.22648254 -0.33268082
0.03490356 0.22952041 -0.38405451
0.00512215 0.22477366 -0.40862963
0.00853537 0.22530884 -0.40719828
0.02019263 0.22745061 -0.35320130
0.00224149 0.22463940 -0.36020148
0.02912503 0.22937363 -0.26773614
-0.03926374 0.20650001 -0.47525516
-0.02137837 0.21396708 -0.45574263
-0.04071764 0.20825836 -0.43032330
-0.04452339 0.20197450 -0.48688045
-0.08583517 0.16783646 -0.49982142
-0.12347201 0.06836636 -0.52440089
-0.12761459 0.02939714 -0.52680635
-0.10152838 -0.04217058 -0.52930695
-0.03814718 -0.08976028 -0.51302898
-0.01224783 -0.15967767 -0.52836972
0.02908384 -0.18662187 -0.52961445
0.07467827 -0.22296587 -0.52416348
0.16018039 -0.22234099 -0.51197428
0.21121782 -0.20441721 -0.49735382
0.27326587 -0.14747648 -0.43145448
0.26257005 -0.16248281 -0.42634463
0.27310118 -0.14657870 -0.44533256
0.29219934 -0.11246622 -0.31483668
0.28499782 -0.12657252 -0.39995602
0.28119841 -0.13662896 -0.26940104
0.28334948 -0.13074502 -0.35609648
0.28485230 -0.12787208 -0.33358759
0.28116772 -0.13547371 -0.35134876
0.29699400 -0.10270769 -0.28277716
0.29259175 -0.11127756 -0.33838636
0.30331707 -0.07756630 -0.17454140
0.30807409 -0.05871282 -0.19196941
0.30820304 -0.05989680 -0.24143238
0.29896298 -0.09333406 -0.11557648
0.30281660 -0.07856409 -0.14422664
0.30249852 -0.07962546 -0.13730106
0.30455479 -0.07109059 -0.13370307
0.30590320 -0.06567932 -0.13669820
0.30683005 -0.06444240 -0.21050380
0.30775931 -0.01842814 -0.03867323
0.30628985 -0.04637012 -0.03505310
0.30909309 -0.04181171 -0.08176715
0.30174083 0.01643386 -0.00323314
0.29994291 0.02409056 -0.00120320
0.27384529 0.06138589 0.03592456
0.24482265 0.07744166 0.06317630
0.24453193 0.12380840 0.02842990
0.18479756 0.18668747 0.01303074
0.20824501 0.16866300 0.01527980
0.15196994 0.21012129 -0.01436649
0.15853706 0.21038923 -0.06890804
0.16690746 0.20548922 -0.05293545
0.10084164 0.22880185 -0.13626693
0.10736402 0.22683276 -0.09201679
0.12967627 0.22185306 -0.14823629
0.12312860 0.22362672 -0.16865860
0.10838228 0.22769901 -0.22384363
0.11599515 0.22583771 -0.22384661
0.13612691 0.22110330 -0.24603993
0.12801178 0.22201045 -0.11873445
0.12043279 0.22387339 -0.11990237
0.04972663 0.23202018 -0.34313652
0.05942055 0.23189755 -0.29296881
0.09618423 0.23016064 -0.30376711
0.09430596 0.22970590 -0.38912889
0.08200341 0.23019442 -0.40017405
0.08134314 0.23012871 -0.41529614
0.05461837 0.23172505 -0.35468912
0.07818367 0.23098131 -0.30318376
0.01767404 0.22510679 -0.44940448
0.02641030 0.22610694 -0.45656106
0.01596177 0.22504051 -0.44532025
-0.01708281 0.20794594 -0.49713427
-0.05158358 0.18939933 -0.50106966
-0.10223854 0.10226349 -0.52494270
-0.10080740 0.07812921 -0.52828753
-0.09917606 -0.01383309 -0.52852160
-0.05717151 -0.05852912 -0.51420557
-0.00563858 -0.15095733 -0.52582520
0.02000850 -0.16418977 -0.52693194
0.09750417 -0.20971371 -0.52683979
0.19474527 -0.19594868 -0.51570475
0.21824971 -0.19781676 -0.49759853
0.25517896 -0.16160806 -0.49212724
0.27597693 -0.14237531 -0.44581968
0.27505097 -0.14105326 -0.47508687
0.28943557 -0.11413383 -0.44145924
0.29964122 -0.09101512 -0.41331479
0.30668429 -0.06478182 -0.31661695
0.30537322 -0.07046703 -0.30447751
0.30087978 -0.08758283 -0.35192722
0.30428144 -0.07625963 -0.25459892
0.30285236 -0.08113901 -0.29089117
0.30534172 -0.06836107 -0.38848069
0.30743754 -0.05925258 -0.40864465
0.31083083 -0.02328793 -0.17602012
0.31158730 -0.01177126 -0.20444353
0.31027049 -0.02002695 -0.08991317
0.31041554 -0.03337695 -0.18120278
0.30999374 -0.04660662 -0.20291896
0.30977100 -0.04770635 -0.18190803
0.31188017 -0.01322831 -0.24808587
0.31194526 -0.01125109 -0.24508882
0.30259103 0.03498494 -0.04070672
0.30641836 0.01284076 -0.04808862
0.30264151 0.02817141 -0.02291451
0.30759686 0.01151191 -0.06542084
0.29413041 0.05145154 -0.00173635
0.25988418 0.10726328 0.02127036
0.25253913 0.10814112 0.03219103
0.25003722 0.13423383 0.00025896
0.21186644 0.17651877 -0.02703771
0.22202110 0.17275105 -0.08042265
0.22248030 0.17175832 -0.07089114
0.19896659 0.18676656 -0.03855706
0.16789526 0.20717365 -0.10879112
0.16067454 0.21121058 -0.18094134
0.17487508 0.20455486 -0.18048209
0.18548259 0.19904570 -0.12091491
0.18529555 0.19900879 -0.10719531
0.16930863 0.20750125 -0.21784948
0.15576151 0.21358062 -0.18851933
0.15109357 0.21516493 -0.12215897
0.11633495 0.22530721 -0.35839555
0.11961155 0.22440679 -0.37365535
0.12743349 0.22275378 -0.33377814
0.11116155 0.22702906 -0.28814653
0.14574453 0.21865341 -0.27588058
0.12444311 0.22350347 -0.33092520
0.11351953 0.22570106 -0.40366361
0.12267668 0.22345284 -0.40509957
0.05081322 0.22984476 -0.45206988
0.06430313 0.22780009 -0.48199940
0.08908315 0.22934307 -0.42626080
0.01999141 0.21827869 -0.49633986
-0.02678563 0.19466574 -0.50927842
-0.08087975 0.14219891 -0.52047855
-0.07682369 0.10739569 -0.52875948
-0.09480572 0.00867203 -0.52801442
-0.06001927 -0.03564159 -0.51308566
-0.01275640 -0.07867986 -0.50674784
0.02792193 -0.15214935 -0.52001101
0.09126788 -0.19227470 -0.52931553
0.12592462 -0.20824315 -0.52574754
0.20239091 -0.18398978 -0.51882511
0.24272737 -0.17344853 -0.49860236
0.28899607 -0.10045596 -0.49321133
0.29885593 -0.09061596 -0.43486208
0.30032191 -0.08329489 -0.44144461
0.30465040 -0.06339879 -0.45233721
0.30926895 -0.04906102 -0.41382208
0.30967218 -0.04198625 -0.40083686
0.31183782 -0.01216664 -0.27241343
0.30961394 -0.05137248 -0.34269863
0.31172401 -0.01483852 -0.27122974
0.31031245 -0.03816330 -0.32703981
0.31067663 -0.02726237 -0.34767902
0.31029913 -0.03068906 -0.38277003
0.30681813 0.02772295 -0.16335115
0.30689818 0.03112602 -0.23605564
0.30901411 0.01470136 -0.18610777
0.30873770 0.01575154 -0.17233227
0.30985492 0.00477761 -0.10329212
0.30730480 0.02122838 -0.10150726
0.30483502 0.04071948 -0.16572930
0.30477363 0.04089874 -0.16166937
0.29680645 0.06265119 -0.08055516
0.30260739 0.04579438 -0.07544719
0.29769599 0.05718069 -0.06208006
0.28616574 0.08428754 -0.03300310
0.28214100 0.08831159 -0.00609854
0.24415836 0.14877942 -0.05422722
0.24169508 0.15029758 -0.03990391
0.25882462 0.13425601 -0.07289971
0.23910937 0.15430978 -0.05424292
0.19880599 0.19066703 -0.14630535
0.19311932 0.19427842 -0.09167861
0.22256944 0.17346977 -0.16788152
0.21352813 0.18001048 -0.15944424
0.19695413 0.19292991 -0.23519033
0.22526464 0.17183098 -0.20092328
0.20002311 0.18968876 -0.13784815
0.19244948 0.19489224 -0.10373955
0.16451913 0.20949705 -0.33290556
0.14827091 0.21683469 -0.37203789
0.17630658 0.20416100 -0.30635592
