-0.0452794544 0.0229454469 0.4189214110
0.0008187845 0.0373700634 0.4288125932
-0.0339679010 0.0304714013 0.4335688055
-0.0039330348 0.0336624682 0.4445473552
-0.0311919730 0.0275053252 0.4455105662
0.0104908096 0.0308428127 0.4344650209
-0.0496235080 0.0058806026 0.4299974144
0.0292873178 -0.0083095301 0.4147000313
-0.0430963002 -0.0263647232 0.4141920805
-0.0226119328 0.0246870536 0.4592091739
0.0193169899 0.0190907773 0.4403080344
-0.0477178767 -0.0138415415 0.4289886355
0.0026068091 -0.0386799090 0.4037130177
-0.0004093923 0.0212228280 0.4644535184
-0.0460685715 -0.0050569684 0.4420333803
-0.0068447483 0.0339280479 0.3869929016
0.0179927200 0.0119230300 0.4506901801
-0.0341886133 -0.0317165703 0.4281687140
0.0209446158 -0.0111120287 0.3871875107
0.0222974122 -0.0135680977 0.4390226305
-0.0106537351 0.0047963201 0.4790903330
-0.0446762443 -0.0060692015 0.3918769956
0.0044230339 -0.0374785028 0.4197951257
-0.0134771802 -0.0119293062 0.4776076376
-0.0333741494 -0.0259728134 0.4447461367
0.0085433638 -0.0344624668 0.4267713428
-0.0233630706 -0.0122603327 0.4725483060
-0.0354476795 -0.0142362630 0.4576966465
0.0064005544 -0.0109637333 0.4682852626
-0.0248174202 -0.0281684771 0.4512338042
-0.0122164832 -0.0247248728 0.4627726078
-0.0071620420 -0.0311744101 0.4506999552
-0.0223415866 0.0336999185 0.3830865920
-0.0427851193 -0.0140926540 0.3837455511
0.0150130326 -0.0250303876 0.3821557462
-0.0294927061 0.0372408405 0.3688959181
-0.0277211461 -0.0354845189 0.3775209486
0.0175682511 -0.0278656110 0.3757458031
-0.0391057245 -0.0305052251 0.3694472909
-0.0286672395 0.0340170078 0.3797277510
-0.0445817001 0.0011502594 0.3838310540
0.0219278745 0.0114217829 0.3833294809
-0.0485619269 -0.0128428387 0.3770220876
0.0178950801 0.0263640303 0.3776464760
-0.0523000844 0.0044550239 0.3693194985
-0.0423091389 -0.0266905744 0.3719241023
-0.0020589423 -0.0401150212 0.3709244728
-0.0035960991 -0.0042910390 0.4572702050
-0.0131605389 -0.0088822143 0.4563134313
-0.0182045475 -0.0015540279 0.4614678025
-0.0055593564 0.0103305327 0.4501834810
-0.0186067689 0.0060432833 0.4556504786
-0.0519181602 0.0272150096 0.3639281094
-0.0564052574 0.0185312554 0.3488545418
-0.0583640300 0.0081772087 0.3250871301
-0.0271432046 -0.0335511751 0.3250871301
0.0049370769 0.0346383899 0.3250871301
0.0284297373 -0.0150247691 0.3250871301
-0.0149049591 -0.0438793451 0.3250871301
-0.0382832699 0.0408279337 0.3458240628
0.0315979421 0.0219061542 0.3672050536
-0.0287746601 0.0393181629 0.3672050536
-0.0451189727 -0.0315859616 0.3672050536
-0.0587928221 0.0126194777 0.3445846438
-0.0560859255 -0.0190804265 0.3647913337
-0.0476173013 -0.0325981528 0.3487881124
-0.0367391855 -0.0417908579 0.3415879905
-0.0235515069 -0.0474386849 0.3346923292
-0.0060169171 -0.0483630560 0.3431069851
0.0027181429 -0.0468551591 0.3589635789
0.0141451014 -0.0418269224 0.3493518829
0.0293971840 -0.0269590467 0.3563188612
0.0342198312 -0.0174361337 0.3606561720
0.0378068015 -0.0005397164 0.3486000896
0.0358525105 0.0137162711 0.3380231261
0.0281359181 0.0288246218 0.3397202790
0.0139485151 0.0421995968 0.3418275416
0.0020622839 0.0473487042 0.3294899464
0.0002875445 0.0477548763 0.3482220769
-0.0191185288 0.0482441448 0.3571464717
-0.0268760361 0.0464097857 0.3366671503
-0.0490816757 0.0309116021 0.3628563583
-0.0578642525 0.0150088761 0.3336324394
-0.0226525217 -0.0455641858 0.3250871301
0.0272657033 -0.0123104164 0.3250871301
0.0024931931 0.0350152627 0.3250871301
-0.0319213495 -0.0329901874 0.3250871301
-0.0507022105 0.0106514115 0.3250871301
-0.0368656814 0.0419156402 0.3472883701
0.0093256347 -0.0430617407 0.3672050536
-0.0501197018 0.0260552131 0.3672050536
0.0373029448 -0.0041862256 0.3672050536
0.0038671799 0.0459786728 0.3672050536
-0.0553818978 -0.0207800195 0.3457443714
-0.0460878052 -0.0345914066 0.3569823205
-0.0439828932 -0.0362325609 0.3275496662
-0.0317245163 -0.0441796854 0.3352906406
-0.0179059189 -0.0481819548 0.3561768830
-0.0073375190 -0.0485369451 0.3640596569
0.0021166469 -0.0471043177 0.3561441302
0.0282138344 -0.0285011753 0.3462391794
0.0326490141 -0.0212285742 0.3665514886
0.0371471122 -0.0055502276 0.3620001674
0.0375579707 0.0026516768 0.3411448002
0.0361790955 0.0129278870 0.3570641279
0.0284506846 0.0284143742 0.3461409509
0.0164283421 0.0402967334 0.3441220224
0.0000339870 0.0477882959 0.3425295353
-0.0169986226 0.0485232137 0.3662269413
-0.0313537568 0.0445550904 0.3540442586
-0.0597686619 -0.0049854489 0.3313342035
-0.0336029306 0.0247379541 0.3838631511
0.0066676415 0.0375821777 0.3227471709
-0.0349426866 0.0278696455 0.3227471709
-0.0201041512 0.0231974963 0.3227471709
0.0296099894 0.0172183141 0.3227471709
0.0203075837 0.0121375471 0.3227471709
-0.0317823030 0.0051545282 0.3227471709
-0.0005097231 -0.0061409655 0.3227471709
-0.0292579774 -0.0069499286 0.3227471709
0.0269747358 -0.0190520622 0.3227471709
0.0000475166 -0.0225469340 0.3227471709
0.0149631528 -0.0319340229 0.3227471709
0.0092737172 -0.0395838208 0.3227471709
0.0086911293 -0.1148352250 -0.3479584157
-0.0051792236 -0.1217889413 -0.3982318640
0.0066065136 -0.1124783456 -0.3221595585
-0.0040503996 -0.0884162188 -0.0724889189
-0.0085834637 -0.0957893133 -0.1389267147
0.0064497823 -0.1180151626 -0.3762426972
-0.0022722371 -0.1257094294 -0.4404224455
0.0139384083 -0.1200248376 -0.4056127369
-0.0096337181 -0.1006631032 -0.1853557676
-0.0005264314 -0.1095520407 -0.2842622101
-0.0017221697 -0.1255440563 -0.4395111203
-0.0042740456 -0.0694687665 0.1135684550
0.0044669644 -0.0858477578 -0.0583007820
0.0078893797 -0.0972902849 -0.1749057323
0.0045540100 -0.1132669747 -0.3272423744
-0.0007486915 -0.0729864612 0.0745291561
0.0117060272 -0.1072573513 -0.2775531411
-0.0088209650 -0.0941435546 -0.1224842891
-0.0066666631 -0.0878563300 -0.0636224374
-0.0100847585 -0.1004046947 -0.1822400093
-0.0016978816 -0.0990104973 -0.1793960631
0.0006144551 -0.0558022521 0.2412504703
0.0003130551 -0.0506211147 0.2924377024
0.0027500924 -0.0735123158 0.0648571700
-0.0072926106 -0.0498487055 0.3098281026
0.0103247864 -0.0948401615 -0.1540270895
-0.0065999934 -0.0515775159 0.2919841409
-0.0035755602 -0.0590023249 0.2152844667
0.0148341330 -0.1049497426 -0.2589660585
0.0153242135 -0.0743832216 0.0235378146
0.0109278308 -0.0628329515 0.1457014680
0.0185559914 -0.0934269354 -0.1626809835
0.0132228080 -0.0807429850 -0.0266141649
0.0065251733 -0.0496447831 0.2828530371
0.0147010377 -0.0797489658 -0.0231268723
0.0068429555 -0.0531626381 0.2495106012
0.0099741584 -0.0496478379 0.2697730362
0.0360261127 -0.1160266846 -0.4352714717
0.0334105827 -0.0801539570 -0.0976305604
0.0179614238 -0.0550355092 0.1903232634
0.0450003035 -0.1117826328 -0.4304583669
0.0381622389 -0.1077742875 -0.3679592013
0.0253775120 -0.0846441537 -0.1082541794
0.0311548896 -0.1185060218 -0.4394887388
0.0222232435 -0.1152737960 -0.3761579394
0.0411077738 -0.1051966995 -0.3555564880
0.0293667838 -0.1085353643 -0.3416274786
0.0347914137 -0.1075005531 -0.3527017832
0.0362969488 -0.1123611033 -0.4028066695
0.0301223211 -0.0789675117 -0.0743469968
0.0258536544 -0.0933474302 -0.1895714998
0.0379848033 -0.1096529812 -0.3844517767
0.0450637937 -0.1084982008 -0.4006911218
0.0256672576 -0.0939801782 -0.1946473569
0.0289971661 -0.0906907395 -0.1771954298
0.0391353071 -0.0933364630 -0.2397340536
0.0295539163 -0.0780317336 -0.0636462718
0.0322624408 -0.0725198090 -0.0271207504
0.0164684411 -0.0463862307 0.2729904652
0.0261009373 -0.0538726561 0.1562676728
0.0366627350 -0.0756986886 -0.0785507858
0.0196931288 -0.0516033545 0.2126468867
0.0230774004 -0.0420369580 0.2673260570
0.0257057268 -0.0450117551 0.2281647027
0.0247791130 -0.0618055165 0.1019878983
0.0630667880 -0.0831228867 -0.2957513928
0.0451254100 -0.0775725394 -0.1441978663
0.0532975271 -0.0757391155 -0.1790105402
0.0437832102 -0.0626439825 -0.0189959072
0.0385806784 -0.0557155311 0.0666804463
0.0555460453 -0.0773964524 -0.2055493295
0.0425391421 -0.0545994639 0.0516065732
0.0460625403 -0.0836758912 -0.1977232546
0.0510164872 -0.0989095941 -0.3470622003
0.0553638861 -0.0678234547 -0.1293477416
0.0419479944 -0.0565806516 0.0396216810
0.0654516593 -0.0890340954 -0.3564844429
0.0513567626 -0.0962639898 -0.3283547759
0.0635907724 -0.0876072124 -0.3340874016
0.0393761508 -0.0678247958 -0.0331112593
0.0443344191 -0.0736867785 -0.1089504436
0.0330374576 -0.0531019978 0.1205557510
0.0545664541 -0.0827491581 -0.2416463345
0.0552252494 -0.1020457670 -0.3970040977
0.0582359061 -0.0885304436 -0.3090938628
0.0651374608 -0.0817287341 -0.2972790897
0.0589422174 -0.0569179952 -0.0894024521
0.0662693009 -0.0491855927 -0.1003376991
0.0721721947 -0.0665889978 -0.2514179945
0.0384742320 -0.0309466477 0.2275275886
0.0738682002 -0.0676113814 -0.2708790600
0.0807698444 -0.0680785626 -0.3278382421
0.0694668517 -0.0578111932 -0.1773505062
0.0399131775 -0.0321196876 0.2091763467
0.0627140403 -0.0460011661 -0.0532742552
0.0851556286 -0.0809064433 -0.4394717813
0.0901328847 -0.0613032505 -0.3605083525
0.0854774043 -0.0651500523 -0.3471420705
0.0686734915 -0.0598691553 -0.1835153550
0.0744221807 -0.0592652149 -0.2249806076
0.0887905210 -0.0665490627 -0.3815565109
0.0448439792 -0.0333326645 0.1631900072
0.0824522376 -0.0822981149 -0.4266400039
0.0900705382 -0.0732853711 -0.4321521521
0.0500655025 -0.0353369191 0.1101585105
0.0799922198 -0.0652453303 -0.3046813607
0.0913030356 -0.0599499680 -0.3615417480
0.0438578688 -0.0477702431 0.0840116888
0.0331888907 -0.0431087688 0.1957775205
0.0334488899 -0.0358708464 0.2373099774
0.0390232429 -0.0415103212 0.1596262306
0.0445700474 -0.0510986000 0.0583870150
0.0498184673 -0.0534312315 0.0031682055
0.0692157373 -0.0794307366 -0.3055311739
0.0619831942 -0.0712773278 -0.1997048110
0.0925399289 -0.0522179306 -0.3417073190
0.0603633933 -0.0314963087 0.0306837186
0.0777324513 -0.0448648036 -0.1785954237
0.0940140039 -0.0347979739 -0.2892517745
0.0634684339 -0.0221209973 0.0377953909
0.0579989776 -0.0269018319 0.0696732998
0.0503861383 -0.0228557922 0.1545373052
0.0803729221 -0.0351043493 -0.1657821238
0.0904833525 -0.0328709483 -0.2497016639
0.0705615208 -0.0279429574 -0.0490412898
0.0981643274 -0.0306396652 -0.3114333153
0.0901720077 -0.0373461433 -0.2637932301
0.0979664326 -0.0506927148 -0.3855133653
0.0980506316 -0.0625635386 -0.4312063456
0.0790005624 -0.0393084213 -0.1691538244
0.0949511304 -0.0352857336 -0.2996591032
0.0705415532 -0.0388885550 -0.0902813077
0.0640678927 -0.0320152417 -0.0051250239
0.0636970550 -0.0263806563 0.0195861552
0.0908938050 -0.0440725498 -0.2958427072
0.0385305509 -0.0195621531 0.2753177285
0.0939971283 -0.0605121776 -0.3864093721
0.0514090061 -0.0310249738 0.1142771244
0.0359563455 -0.0158330407 0.3129486442
0.0413187072 -0.0186566897 0.2532706857
0.0718709603 -0.0452517010 -0.1265071779
0.0583782941 -0.0335774198 0.0409448892
0.0504290089 -0.0242827162 0.1487464011
0.1093859747 -0.0109952753 -0.3925406337
0.0834327266 -0.0097787129 -0.1365137845
0.1060902178 -0.0258270446 -0.3793725073
0.0894837081 -0.0063937488 -0.1914714277
0.0802709609 -0.0050381818 -0.0993958041
0.0835538357 -0.0154295564 -0.1449953467
0.1000871584 -0.0112207960 -0.3016619086
0.0973867849 -0.0027161869 -0.2642089427
0.1092462838 -0.0184963308 -0.4008531868
0.0704823807 -0.0085750688 -0.0079899142
0.0758354515 -0.0014799412 -0.0513150729
0.1040974557 -0.0214128122 -0.3541362584
0.0838199481 -0.0031307547 -0.1317296624
0.0940074027 -0.0135041578 -0.2450013012
0.1049339250 -0.0216114782 -0.3625938594
0.0548606813 -0.0058516688 0.1486872286
0.0958552510 -0.0141805559 -0.2639912367
0.0782855302 -0.0075045605 -0.0831131116
0.0547104701 -0.0018212373 0.1553619653
0.0892673209 -0.0000456827 -0.1811556071
0.0970478877 -0.0106036505 -0.2710672617
0.0390780121 -0.0095924772 0.2985985577
0.0529939272 -0.0101940138 0.1613850743
0.0848693848 -0.0216068327 -0.1658667624
0.1007928178 -0.0295950752 -0.3322980404
0.0489960127 -0.0140395956 0.1956180632
0.1007840931 -0.0292401277 -0.3317545950
0.0533974506 -0.0093506156 0.1585173309
0.0517991632 -0.0075721266 0.1764831543
0.0764253736 0.0167228952 -0.0764876828
0.0969768167 0.0177976005 -0.2793696821
0.0818400681 0.0234853253 -0.1383042932
0.0714036152 0.0180066582 -0.0289097931
0.0581899397 0.0124123367 0.1078635752
0.0736152977 0.0207887813 -0.0541849770
0.0708275512 0.0095448382 -0.0123390649
0.0754693374 0.0074340599 -0.0551244281
0.0836486295 0.0059344354 -0.1333820224
0.0892229006 0.0082194684 -0.1909842640
0.0973563790 0.0251898095 -0.2926332653
0.1097170487 0.0106037324 -0.3949947357
0.1055633798 0.0128931664 -0.3572260141
0.1094127893 0.0230100378 -0.4080253243
0.1066562608 0.0311433971 -0.3914976716
0.0864141211 0.0241175480 -0.1839666516
0.0999578908 0.0179567784 -0.3088030815
0.0932305083 0.0220103972 -0.2480772883
0.1053630412 0.0103655383 -0.3519985676
0.0740787238 0.0217180438 -0.0599279217
0.0708319545 0.0112918671 -0.0146375457
0.0368407406 0.0124986488 0.3170688748
0.0408772826 0.0092497142 0.2816863358
0.0781433061 0.0030539376 -0.0756874830
0.0693143532 0.0036023748 0.0101669142
0.0400333144 0.0075665847 0.2921335399
0.0730035305 0.0041930308 -0.0267651509
0.0890891552 0.0037277681 -0.1838748902
0.0808585137 0.0028219784 -0.1020092741
0.0957187340 0.0422228649 -0.3320849836
0.0743026957 0.0357229598 -0.1118246242
0.0865697935 0.0382770337 -0.2335655987
0.0882717520 0.0502990931 -0.2946105897
0.0746807158 0.0456889272 -0.1529928744
0.0598660596 0.0337086804 0.0276950244
0.0902695656 0.0367693827 -0.2616619766
0.0589369200 0.0281413775 0.0572527722
0.0593658723 0.0339150876 0.0314837582
0.0555700064 0.0319705382 0.0735229552
0.1044678092 0.0474534370 -0.4318130016
0.0700149611 0.0442863330 -0.1050574258
0.0875808448 0.0419673137 -0.2567683458
0.0793097094 0.0490654558 -0.2080625147
0.0453813337 0.0272368118 0.1845237166
0.0707457215 0.0290697850 -0.0541491173
0.0723405033 0.0373734869 -0.1001435965
0.1020416915 0.0413282439 -0.3864679337
0.0711394623 0.0426937118 -0.1093042269
0.0691571385 0.0312176067 -0.0477633961
0.0437914431 0.0180277266 0.2338990569
0.0409681611 0.0151829682 0.2704588175
0.0496593714 0.0252397303 0.1529960781
0.0874356106 0.0271264967 -0.1992778778
0.0549068116 0.0201298241 0.1243911833
0.0897217840 0.0307199061 -0.2337640673
0.0598702170 0.0217737928 0.0728229210
0.0616995618 0.0199741535 0.0629198328
0.0578953847 0.0669153035 -0.1400386244
0.0777776837 0.0870160684 -0.4170328677
0.0347156972 0.0405007787 0.2008342147
0.0692957714 0.0738609508 -0.2712936997
0.0760590211 0.0627204329 -0.2572880685
0.0817216411 0.0798355639 -0.4047482610
0.0653545856 0.0652891025 -0.1887700707
0.0674611256 0.0719375089 -0.2453206480
0.0444133952 0.0437850431 0.1049795300
0.0664778724 0.0746448115 -0.2539046705
0.0833901837 0.0742510632 -0.3842191994
0.0865648240 0.0710912123 -0.3901033401
0.0828000158 0.0678255707 -0.3409074843
0.0861147642 0.0703538135 -0.3821332455
0.0665714368 0.0649805292 -0.1964591742
0.0538984500 0.0559630170 -0.0427475870
0.0509703569 0.0501766726 0.0150591638
0.0751350150 0.0682066455 -0.2830660045
0.0723007247 0.0641383901 -0.2363380641
0.0405114964 0.0470181666 0.1161282361
0.0508633405 0.0526186004 0.0011979798
0.0713692233 0.0510067865 -0.1499774307
0.0394249707 0.0366119593 0.1872989535
0.0757922605 0.0530292578 -0.1968532503
0.0959891602 0.0625155345 -0.4124155939
0.0767915696 0.0525372215 -0.2017310709
0.0554484054 0.0402376428 0.0397601947
0.0572920963 0.0431786999 0.0075904652
0.0699318275 0.0475106537 -0.1176527813
0.0369949453 0.0765115246 -0.0851875767
0.0212651696 0.0433658324 0.2695508599
0.0326107889 0.0611080118 0.0620535724
0.0237086453 0.0510739051 0.1943670660
0.0346883126 0.0648073703 0.0205229577
0.0343050025 0.0670710504 0.0050707017
0.0187633373 0.0509675033 0.2249729037
0.0186181795 0.0402916409 0.3096043766
0.0623544417 0.0845761374 -0.3011242747
0.0407490768 0.0720889792 -0.0730910674
0.0505502857 0.0806742385 -0.1994501948
0.0699506551 0.0844861194 -0.3461474478
0.0447467454 0.0576323718 0.0162621960
0.0265577640 0.0390675776 0.2714109421
0.0655997545 0.0811996907 -0.2941713929
0.0431477278 0.0595250092 0.0110397758
0.0564408712 0.0909601897 -0.3156104088
0.0507335067 0.0831535757 -0.2200051099
0.0530621447 0.0677671358 -0.1133091673
0.0473351367 0.0591723025 -0.0114017744
0.0542263389 0.0688183233 -0.1285645515
0.0512720011 0.0937650949 -0.3064994216
0.0367988460 0.0641358644 0.0130859222
0.0313306116 0.0549109690 0.1183789149
0.0412546434 0.0547486953 0.0599087253
0.0762050748 0.0920046940 -0.4427862465
0.0315237753 0.0543988422 0.1212338209
0.0542828217 0.0933377296 -0.3212715387
0.0184106715 0.1009704918 -0.2290247977
0.0164459459 0.0743697360 0.0214422364
0.0073970165 0.0453085080 0.3211981058
0.0132771702 0.0612822659 0.1530050784
0.0067211078 0.0586463176 0.2018983215
0.0140327895 0.0635152608 0.1297442168
0.0055242283 0.0564600267 0.2264022827
0.0084382240 0.0476979055 0.2954276502
0.0386807621 0.1012458131 -0.3082493842
0.0404592529 0.1028198078 -0.3293601573
0.0246154536 0.0793030187 -0.0545457527
0.0415551476 0.1001386642 -0.3090113699
0.0199797768 0.0756750926 -0.0038569511
0.0327526852 0.0940033272 -0.2196459323
0.0191240720 0.0903674960 -0.1348523498
0.0216597281 0.1116142869 -0.3385646045
0.0352519080 0.0994308889 -0.2786914706
0.0215326641 0.0608175732 0.1260087937
0.0415556394 0.1086634472 -0.3868986666
0.0263158623 0.0860929564 -0.1230152026
0.0224967692 0.1062359512 -0.2925944626
0.0203092955 0.0911877453 -0.1468316317
0.0245877430 0.0966173857 -0.2126296312
0.0204859953 0.0588316582 0.1481133997
0.0193316601 0.0729009211 0.0239412971
0.0370139331 0.0892594978 -0.1924313307
0.0195681024 0.0718416572 0.0327244028
0.0294900984 0.1141961515 -0.3917859495
0.0349060893 0.0828166828 -0.1255911589
-0.0074660499 0.0651478991 0.1622271240
0.0099148238 0.1041571200 -0.2426704615
-0.0066681304 0.1050766408 -0.2302810252
-0.0026634540 0.1042974666 -0.2278110981
-0.0103827352 0.0605253018 0.2113138586
0.0035934909 0.1098993719 -0.2908108830
-0.0037891809 0.1021309420 -0.2051163614
0.0012873483 0.0885149166 -0.0781717151
0.0000826446 0.0929258466 -0.1198632568
-0.0062358356 0.1005469188 -0.1864276081
0.0152313812 0.1111800298 -0.3183890283
-0.0016022780 0.0794134215 0.0147931362
0.0012706402 0.0854252428 -0.0478579812
-0.0046351063 0.0905841738 -0.0908150673
0.0001473584 0.0827258453 -0.0199417546
0.0085476022 0.1235802248 -0.4313380718
-0.0048309593 0.0706565604 0.1048166454
-0.0050286865 0.0701317936 0.1102168262
-0.0111791883 0.1268491745 -0.4379248619
0.0132814907 0.1154572591 -0.3578080535
0.0001018794 0.0787864923 0.0187398642
0.0089468062 0.0795195401 0.0001359887
0.0132747255 0.0947419554 -0.1546972841
0.0105800554 0.0978275537 -0.1814719290
0.0144636175 0.1023157910 -0.2304894477
-0.0005368638 0.0695856810 0.1097730398
-0.0071924427 0.0501880422 0.3085464835
0.0009218050 0.0479962490 0.3195621669
0.0117032556 0.0981152579 -0.1857424229
-0.0319718830 0.0960497186 -0.1625495702
-0.0384144895 0.1182290316 -0.3883210719
-0.0192402136 0.1163578704 -0.3452253342
-0.0264589004 0.0672610402 0.1268227249
-0.0227445401 0.0943525657 -0.1339996159
-0.0250614416 0.0753083676 0.0497269779
-0.0310418438 0.1016229317 -0.2159913629
-0.0222181082 0.1034212261 -0.2222332060
-0.0307289530 0.0974961221 -0.1751266867
-0.0197216552 0.0910442621 -0.0976615325
-0.0269754697 0.0790715143 0.0103608929
-0.0371591747 0.1136331260 -0.3416405618
-0.0268380549 0.0732541978 0.0675735623
-0.0235138517 0.0898664892 -0.0910090059
-0.0318382978 0.1228913590 -0.4255436957
-0.0266156327 0.0814900100 -0.0128862793
-0.0232372284 0.1093860567 -0.2820298970
-0.0328164212 0.1102098152 -0.3024710417
-0.0356127247 0.1180180982 -0.3826369047
-0.0243680906 0.0883692279 -0.0774321109
-0.0190793257 0.0709293485 0.1003825292
-0.0154593466 0.0994555056 -0.1746273339
-0.0157331973 0.0882311612 -0.0649326071
-0.0160123482 0.0617304929 0.1945307255
-0.0157548785 0.0579119697 0.2323015034
-0.0117433555 0.1011540368 -0.1864838004
-0.0116691869 0.1101859361 -0.2749402225
-0.0170936547 0.0852599964 -0.0375578888
-0.0514614955 0.0784615800 -0.0631268099
-0.0465224646 0.0821351856 -0.0779986829
-0.0523265749 0.0732936412 -0.0191850774
-0.0556288548 0.0985091701 -0.2620577216
-0.0413064808 0.0880031586 -0.1118709221
-0.0399091020 0.0588094071 0.1601394564
-0.0534044579 0.0909594148 -0.1846632808
-0.0643804595 0.0967943743 -0.2795099616
-0.0445703715 0.1051140502 -0.2805525064
-0.0635032356 0.0909666643 -0.2229470760
-0.0563878939 0.0814884976 -0.1094247326
-0.0447095782 0.0606770180 0.1249095500
-0.0514686666 0.0728307441 -0.0117088798
-0.0620655119 0.1137390807 -0.4255607724
-0.0715383440 0.1101232618 -0.4283742011
-0.0516069792 0.0930677876 -0.1971234083
-0.0609856732 0.0884841904 -0.1907392889
-0.0461037792 0.1202209741 -0.4243762493
-0.0571670681 0.0936841145 -0.2237962186
-0.0464671217 0.0809295103 -0.0667738095
-0.0521130338 0.0807060227 -0.0860981345
-0.0392566659 0.0793413296 -0.0249767173
-0.0305392928 0.0538257509 0.2411300838
-0.0371604785 0.0647604242 0.1161708608
-0.0351899676 0.0785794333 -0.0026261255
-0.0304007381 0.0619382858 0.1675362587
-0.0384249240 0.1007659212 -0.2175703347
-0.0364985876 0.0782237500 -0.0043287752
-0.0377506465 0.0929419473 -0.1435366571
-0.0820785463 0.0946180224 -0.3629128337
-0.0684696510 0.0676584914 -0.0694760606
-0.0704975426 0.0691730306 -0.0935660601
-0.0832173079 0.0838727653 -0.2854665518
-0.0914814472 0.0834938958 -0.3322443664
-0.0712395534 0.0713335648 -0.1149834171
-0.0650730729 0.0713401288 -0.0779124498
-0.0835286528 0.0881995037 -0.3212864101
-0.0600516424 0.0650182217 0.0019154146
-0.0531702191 0.0435902923 0.2114542425
-0.0819804966 0.0815073252 -0.2594627440
-0.0709295943 0.0666747019 -0.0765665025
-0.0643384829 0.0642952025 -0.0182193816
-0.0842157304 0.0974797755 -0.3982307911
-0.0899961218 0.0928733200 -0.3968887925
-0.0766636133 0.0942164138 -0.3271641433
-0.0834491923 0.0761270300 -0.2260929346
-0.0547363907 0.0456421040 0.1859284788
-0.0595027991 0.0485590734 0.1343496889
-0.0685020909 0.0815224051 -0.1784403175
-0.0812771991 0.0791508108 -0.2367407531
-0.0619669743 0.0831087455 -0.1515442282
-0.0471498780 0.0537685752 0.1678434461
-0.0685216561 0.0948271230 -0.2829403281
-0.0464079492 0.0414280035 0.2691279352
-0.0647648275 0.0908258259 -0.2289318442
-0.0554588363 0.0661100075 0.0209989380
-0.0431793518 0.0394600593 0.3040039539
-0.0693709999 0.0960040316 -0.2972871363
-0.0898552015 0.0681676865 -0.2214255631
-0.0921210051 0.0537711829 -0.1525335014
-0.1045637429 0.0551925227 -0.2587097585
-0.0937724262 0.0636439919 -0.2249251008
-0.1111762822 0.0735527426 -0.4211177826
-0.1136819497 0.0648077428 -0.3881304264
-0.0733783692 0.0369084291 0.0960264876
-0.0778169706 0.0491521321 -0.0125046391
-0.0996881127 0.0654195473 -0.2820253074
-0.0826606452 0.0466232412 -0.0352814123
-0.0592851005 0.0311173573 0.2414573282
-0.0983747691 0.0697171092 -0.2975930870
-0.0725452378 0.0413158536 0.0760295987
-0.1014514491 0.0838103294 -0.4065728784
-0.1017229334 0.0750577077 -0.3560121059
-0.0659608096 0.0397322811 0.1372207850
-0.1003267765 0.0779816881 -0.3626604676
-0.0875048861 0.0464295894 -0.0721213818
-0.0811026990 0.0456103981 -0.0169610493
-0.1078640595 0.0622825585 -0.3272849321
-0.0826683864 0.0696485639 -0.1739561409
-0.0487112403 0.0316481888 0.3212189674
-0.0801504925 0.0645226836 -0.1233437061
-0.0486883372 0.0343454666 0.3051610589
-0.0701502562 0.0474577583 0.0578447320
-0.0833672807 0.0682934448 -0.1712813973
-0.0917469859 0.0775309727 -0.2926349044
-0.0619368181 0.0475166030 0.1219288036
-0.1221923009 0.0452448130 -0.3793947101
-0.1008502766 0.0273418687 -0.1166567281
-0.0872918367 0.0283497423 0.0034021207
-0.1163059548 0.0510359257 -0.3475314379
-0.1231692880 0.0576885715 -0.4354123175
-0.1013670862 0.0375255309 -0.1599172354
-0.1239826903 0.0363081545 -0.3619330525
-0.0828242227 0.0198510829 0.0763816088
-0.1070269421 0.0489982553 -0.2550446689
-0.0968981683 0.0313887633 -0.0958646238
-0.1244714707 0.0335620977 -0.3560058475
-0.0993977189 0.0301393159 -0.1139728352
-0.0904784650 0.0216362141 -0.0003048232
-0.0933525190 0.0332935825 -0.0706789270
-0.1167169735 0.0416004658 -0.3155792654
-0.0969753563 0.0403526872 -0.1304924339
-0.1237867549 0.0447940193 -0.3922561109
-0.1190377921 0.0381131731 -0.3235856593
-0.0987401456 0.0417200699 -0.1517905593
-0.1090769991 0.0277872048 -0.1935040802
-0.1169440448 0.0416084528 -0.3176842332
-0.0858139321 0.0415664352 -0.0331115462
-0.0666603595 0.0196368098 0.2248695642
-0.0749877393 0.0314985476 0.1038996056
-0.0840898082 0.0373502597 -0.0014041429
-0.0696101338 0.0254091341 0.1760751903
-0.0576586984 0.0237340331 0.2916068435
-0.0646415129 0.0197414607 0.2429183573
-0.0692703426 0.0314258896 0.1564102918
-0.1305278391 0.0197519753 -0.3897798359
-0.1048257723 0.0050785262 -0.1188454628
-0.1039954945 0.0191098079 -0.1288166642
-0.1226573586 0.0161244962 -0.3079316616
-0.1163943857 0.0050353291 -0.2322128415
-0.1198787466 0.0250374377 -0.2921940088
-0.1077132821 0.0133142136 -0.1577863246
-0.0966734663 0.0154142752 -0.0522581935
-0.1239612550 0.0077754376 -0.3099387884
-0.1250631064 0.0216448940 -0.3386446238
-0.1069771424 0.0191227663 -0.1580663472
-0.0787358359 0.0002001319 0.1432481259
-0.1158240214 0.0134330867 -0.2374610454
-0.0763445273 0.0011247488 0.1654999405
-0.1275818795 0.0163484681 -0.3565030992
-0.0766362250 0.0056457501 0.1568040401
-0.1339195222 0.0239595138 -0.4284644723
-0.0959703326 0.0023490542 -0.0284997076
-0.1131732836 0.0055470085 -0.2012926191
-0.0963327810 0.0116772559 -0.0440941043
-0.0772757828 0.0084860260 0.1468679458
-0.0667443052 0.0083332881 0.2503197789
-0.0735142305 0.0132844243 0.1775536537
-0.0611145310 0.0051546097 0.3096192181
-0.0679730549 0.0053207548 0.2421614379
-0.0902961344 0.0179447550 0.0070011537
-0.0729177892 0.0080763893 0.1901237816
-0.0845209584 0.0143050523 0.0683217272
-0.0865785182 -0.0191260688 0.0416392200
-0.0892410725 -0.0175957978 0.0175098535
-0.1108918339 -0.0068400619 -0.1808794737
-0.1019235104 -0.0180154201 -0.1073755324
-0.1082595959 -0.0209971033 -0.1733462662
-0.1345500350 -0.0020186389 -0.4066108465
-0.1259905249 -0.0106330328 -0.3338100910
-0.1083966047 -0.0099870767 -0.1604773253
-0.0963254422 -0.0066317390 -0.0377957150
-0.1135563478 -0.0181851909 -0.2216484845
-0.0747649074 -0.0153095024 0.1623911858
-0.0844823271 -0.0117284814 0.0717403516
-0.1333428770 -0.0210592505 -0.4193532467
-0.1061473563 -0.0133572072 -0.1427754164
-0.1179837883 -0.0269356966 -0.2763513327
-0.1346044689 -0.0135978051 -0.4220914245
-0.1340325624 -0.0326079763 -0.4410221577
-0.1021414548 -0.0097793648 -0.0988813117
-0.1326607019 -0.0217515007 -0.4135587215
-0.1344290823 -0.0259930268 -0.4363711178
-0.1318123341 -0.0252362248 -0.4097389281
-0.1094625071 -0.0003911355 -0.1585417986
-0.0751744583 -0.0038544245 0.1731618047
-0.1023794413 -0.0054072705 -0.0955713317
-0.0675753132 -0.0016934397 0.2504563630
-0.1020848081 -0.0021166876 -0.0884349644
-0.1058813259 -0.0047318917 -0.1290333420
-0.0707709864 -0.0011567797 0.2198174447
-0.0886751115 -0.0068797544 0.0368907414
-0.0915892720 -0.0433086157 -0.0933097303
-0.0777566582 -0.0270837471 0.0944702178
-0.1194880977 -0.0380809791 -0.3284175694
-0.0757349581 -0.0325487219 0.0922592729
-0.0899204090 -0.0365832709 -0.0526108593
-0.1159519851 -0.0546295382 -0.3587361574
-0.0638798624 -0.0291308723 0.2135049999
-0.1045703441 -0.0444816947 -0.2163474858
-0.0994520858 -0.0396009386 -0.1511152238
-0.1225063354 -0.0456987061 -0.3848213851
-0.1037698984 -0.0342893116 -0.1704627872
-0.0867388323 -0.0418924913 -0.0436354056
-0.1235872358 -0.0346301198 -0.3528092504
-0.0996948034 -0.0457279682 -0.1765195876
-0.0867371261 -0.0299618412 0.0015301474
-0.1037174091 -0.0333781019 -0.1665349305
-0.0701284930 -0.0287258811 0.1579484344
-0.0661519393 -0.0271941852 0.2000756562
-0.0855873525 -0.0416488759 -0.0321935713
-0.0857090354 -0.0292825904 0.0134932771
-0.0629874021 -0.0287613347 0.2230575383
-0.1032221913 -0.0260446593 -0.1342580914
-0.0687777400 -0.0186541211 0.2084044963
-0.0793808550 -0.0185848027 0.1117938757
-0.0682972744 -0.0235043559 0.1944391131
-0.0597836599 -0.0206944402 0.2828558087
-0.0910222530 -0.0263897851 -0.0241021030
-0.0611221902 -0.0248806663 0.2547840476
-0.0981992930 -0.0251990594 -0.0851675272
-0.0810291022 -0.0497160554 -0.0424362421
-0.0823274553 -0.0697123408 -0.1730005890
-0.0601513200 -0.0439075455 0.1563285142
-0.1025363356 -0.0848212168 -0.4225054085
-0.0783235133 -0.0547652021 -0.0516050644
-0.0702754483 -0.0482320003 0.0508659892
-0.1051385850 -0.0598259605 -0.2924486995
-0.0866314918 -0.0745792836 -0.2360670269
-0.0703219846 -0.0505800359 0.0363656543
-0.0560815223 -0.0443516970 0.1855842024
-0.0951504856 -0.0801183805 -0.3362488747
-0.1056624055 -0.0637191758 -0.3199959993
-0.0867171511 -0.0710350201 -0.2154023796
-0.1137958094 -0.0616780445 -0.3715187907
-0.0917457566 -0.0618838817 -0.1997641027
-0.0814716667 -0.0693942681 -0.1643716842
-0.0698629543 -0.0484331511 0.0528915152
-0.0724303201 -0.0534574762 0.0025021585
-0.0630623847 -0.0420925431 0.1444158256
-0.1164637432 -0.0619075596 -0.3938316107
-0.0514262877 -0.0304183830 0.3059858680
-0.0573315434 -0.0379826054 0.2141192853
-0.0938403979 -0.0527793691 -0.1613880247
-0.0735320821 -0.0370303579 0.0927506164
-0.0950604305 -0.0517884083 -0.1649943739
-0.0887122825 -0.0497065634 -0.1026569009
-0.0957904533 -0.0501850285 -0.1610694230
-0.0826274678 -0.0480371639 -0.0448685512
-0.0934673622 -0.0861632600 -0.3668825030
-0.0801253915 -0.0688196272 -0.1504939198
-0.0780948922 -0.0969827697 -0.3592237532
-0.0910221711 -0.0937143564 -0.4114042222
-0.0635611862 -0.0740524456 -0.0918301940
-0.0821843371 -0.0992770940 -0.4018423557
-0.0760674924 -0.0815873221 -0.2262338102
-0.0656621009 -0.0709619075 -0.0802314728
-0.0637631491 -0.0742524117 -0.0946151763
-0.0875620171 -0.0968010947 -0.4147914350
-0.0764230937 -0.0667770281 -0.1121805310
-0.0524247065 -0.0470373631 0.1871586442
-0.0526485965 -0.0471952744 0.1845715642
-0.0830085799 -0.0935193151 -0.3616318703
-0.0748698041 -0.0975348353 -0.3441396654
-0.0822301432 -0.0999360904 -0.4072885215
-0.0953897014 -0.0943949074 -0.4430367947
-0.0905659944 -0.0957510471 -0.4246370494
-0.0830682442 -0.0916934311 -0.3476662040
-0.0710477754 -0.0618551522 -0.0412062742
-0.0808560699 -0.0844028592 -0.2771503329
-0.0673859864 -0.0918523669 -0.2545049489
-0.0475423150 -0.0408835188 0.2648303509
-0.0420308858 -0.0404996760 0.3010208309
-0.0507397838 -0.0479888730 0.1898366958
-0.0461856909 -0.0490164720 0.2091903538
-0.0440372564 -0.0410506427 0.2846199572
-0.0527783483 -0.0566193648 0.1098536476
-0.0496635288 -0.0626647696 0.0811760575
-0.0616417751 -0.1090192124 -0.3828619123
-0.0373873822 -0.0552004315 0.2006283253
-0.0579808019 -0.0813341737 -0.1160692647
-0.0477466471 -0.0963452086 -0.2144843638
-0.0393707715 -0.0581987426 0.1657292098
-0.0716406330 -0.1076382995 -0.4080848098
-0.0372041650 -0.0500956587 0.2479603291
-0.0515387617 -0.0811656192 -0.0901504904
-0.0476261042 -0.0870984271 -0.1295472980
-0.0464477241 -0.0846021771 -0.1022814959
-0.0429603495 -0.0890614390 -0.1298251301
-0.0548366383 -0.1140988395 -0.4035175145
-0.0627441928 -0.0895668045 -0.2093112320
-0.0509186015 -0.0888598040 -0.1580997258
-0.0429949090 -0.0627323315 0.1105937362
-0.0517315157 -0.0819651708 -0.0981847867
-0.0572269745 -0.0967578217 -0.2541312873
-0.0607046485 -0.1076061875 -0.3664056361
-0.0531634539 -0.0770113841 -0.0583446734
-0.0509046651 -0.0949777439 -0.2139420956
-0.0454023592 -0.1072652116 -0.3053811491
-0.0321312211 -0.0504481606 0.2639374733
-0.0349025056 -0.0682483688 0.0908223689
-0.0360611565 -0.0858174786 -0.0740783587
-0.0328426659 -0.0497519597 0.2676058710
-0.0300347861 -0.0613188595 0.1725533009
-0.0360936783 -0.0748761594 0.0257616378
-0.0295594577 -0.0661822557 0.1299190819
-0.0403180048 -0.0946802944 -0.1711605489
-0.0245795101 -0.0870535225 -0.0669803768
-0.0347380303 -0.1174763069 -0.3783701360
-0.0319660939 -0.1018751860 -0.2218324095
-0.0389991179 -0.1080024987 -0.2909848690
-0.0322752371 -0.1181274354 -0.3815751076
-0.0222266670 -0.1024523079 -0.2149194479
-0.0227817055 -0.1039367318 -0.2301894873
-0.0316762663 -0.1120609641 -0.3213236332
-0.0289426390 -0.1084181666 -0.2820798159
-0.0429892018 -0.1198690459 -0.4124800563
-0.0362374485 -0.1057674661 -0.2655071914
-0.0216841791 -0.1064698249 -0.2536084354
-0.0312934443 -0.0768690035 0.0242068768
-0.0239564162 -0.0776569769 0.0259518269
-0.0197730847 -0.0766631663 0.0410951003
-0.0306851845 -0.0731842667 0.0611187667
-0.0317497030 -0.0924915150 -0.1295517385
-0.0183976311 -0.0862083286 -0.0507142320
-0.0219117366 -0.0626801327 0.1754302084
-0.0187467095 -0.0986910015 -0.1735501885
-0.0142943347 -0.0776945129 0.0380553044
-0.0152582768 -0.0532485843 0.2764892578
-0.0166137628 -0.0528813675 0.2783399522
-0.0155021353 -0.0588797852 0.2209640294
-0.0167664997 -0.0902468711 -0.0882041454
-0.0122452546 -0.0676671267 0.1390131265
-0.0202840287 -0.0559086129 0.2439219952
-0.0122536495 -0.1187595800 -0.3619296849
-0.0520789661 0.1183252856 -0.4437035918
-0.0431596264 0.1110777482 -0.4437035918
-0.0139218634 0.1062339917 -0.4437035918
0.0100928275 0.1005857140 -0.4437035918
-0.0368792899 0.0929992869 -0.4437035918
-0.0794271529 0.1014870629 -0.4437035918
-0.0579768904 0.1075123772 -0.4437035918
0.0166256614 0.0830192566 -0.4437035918
-0.0508513600 0.0853878334 -0.4437035918
0.0960517526 0.0651197806 -0.4437035918
0.0795966014 0.0874046758 -0.4437035918
-0.0166765209 0.0655619353 -0.4437035918
-0.0745848641 0.0663010478 -0.4437035918
-0.0881712586 0.0721528009 -0.4437035918
-0.0822558925 0.0661001429 -0.4437035918
-0.0315830261 0.0653321743 -0.4437035918
0.0320441760 0.0633706301 -0.4437035918
0.0089466432 0.0580218360 -0.4437035918
-0.0538045578 0.0559604093 -0.4437035918
0.0954359174 0.0599538386 -0.4437035918
-0.0428520329 0.0535116345 -0.4437035918
0.0774153993 0.0374050289 -0.4437035918
-0.0877827331 0.0437457599 -0.4437035918
-0.0247097537 0.0441356339 -0.4437035918
-0.1104072183 0.0600339174 -0.4437035918
-0.0512755066 0.0437678881 -0.4437035918
-0.0175348334 0.0338068530 -0.4437035918
0.0999860913 0.0257310327 -0.4437035918
0.0075949072 0.0253235977 -0.4437035918
0.0699701309 0.0298796855 -0.4437035918
-0.0207266752 0.0285547636 -0.4437035918
0.0361277461 0.0329875387 -0.4437035918
-0.0346028171 0.0267485641 -0.4437035918
0.0251293331 0.0313589349 -0.4437035918
-0.0737421960 0.0219834186 -0.4437035918
0.0881803855 0.0037023795 -0.4437035918
-0.0584460236 0.0194231085 -0.4437035918
-0.0012346156 0.0135597028 -0.4437035918
-0.0925652757 0.0222150106 -0.4437035918
-0.0660171285 0.0118774287 -0.4437035918
-0.0261808112 0.0108331237 -0.4437035918
-0.1045728698 -0.0027434498 -0.4437035918
0.0238807797 -0.0021554017 -0.4437035918
0.0314500146 -0.0108328387 -0.4437035918
-0.0857012123 -0.0219176058 -0.4437035918
-0.0019858337 -0.0005506379 -0.4437035918
-0.0813746005 -0.0222151745 -0.4437035918
-0.1049694642 -0.0187079962 -0.4437035918
0.0752938613 -0.0274904501 -0.4437035918
-0.0134332497 -0.0177425873 -0.4437035918
0.0547279119 -0.0238055121 -0.4437035918
0.0941166133 -0.0201159697 -0.4437035918
0.0512059815 -0.0279826093 -0.4437035918
-0.0509011596 -0.0268553346 -0.4437035918
-0.1039518118 -0.0427908637 -0.4437035918
0.0934913233 -0.0348987542 -0.4437035918
-0.0847750083 -0.0509734526 -0.4437035918
-0.0731539875 -0.0529885478 -0.4437035918
0.0175265204 -0.0371120647 -0.4437035918
-0.1181766242 -0.0353130363 -0.4437035918
0.0001756401 -0.0564872064 -0.4437035918
-0.0328372866 -0.0618530326 -0.4437035918
0.0798249692 -0.0398439802 -0.4437035918
0.0630536601 -0.0558937378 -0.4437035918
0.0284311231 -0.0634389296 -0.4437035918
0.0688085482 -0.0545263961 -0.4437035918
-0.0394007638 -0.0768468753 -0.4437035918
-0.0248400774 -0.0759097040 -0.4437035918
-0.0283828732 -0.0701716915 -0.4437035918
-0.0194918960 -0.0657359064 -0.4437035918
0.0476930179 -0.0752934143 -0.4437035918
0.0511494204 -0.0883981213 -0.4437035918
0.0869603604 -0.0739023536 -0.4437035918
0.0131362509 -0.0823289230 -0.4437035918
-0.0175115243 -0.0928692445 -0.4437035918
-0.0318774171 -0.1005815193 -0.4437035918
-0.0516546592 -0.1062983796 -0.4437035918
0.0395306014 -0.1000296548 -0.4437035918
0.0580818653 -0.1015203968 -0.4437035918
-0.0377623811 -0.1147918999 -0.4437035918
0.0209579822 -0.1155235618 -0.4437035918
-0.0176665429 -0.0459926091 0.3227471709
0.0249635559 -0.0274336413 0.3227471709
0.0017674041 -0.0259673111 0.3227471709
-0.0412675217 -0.0170543697 0.3227471709
-0.0347112976 -0.0112722246 0.3227471709
0.0198655091 -0.0056812856 0.3227471709
-0.0084053781 0.0050877766 0.3227471709
0.0237724632 0.0047564241 0.3227471709
0.0224064626 0.0203190763 0.3227471709
0.0036406815 0.0221087299 0.3227471709
0.0015766044 0.0310063902 0.3227471709
-0.0084590074 0.0350952595 0.3227471709
-0.0062678666 -0.0516001321 0.2913338244
0.0028058407 -0.0776700154 0.0240214560
0.0099433502 -0.0805016533 -0.0129542127
0.0052257623 -0.0836166367 -0.0374053977
0.0003586971 -0.0725125968 0.0777457729
-0.0007175572 -0.0633921474 0.1685553789
-0.0001534712 -0.0736807436 0.0669539347
-0.0065682884 -0.0533564948 0.2745015323
-0.0070057996 -0.0844292715 -0.0295845196
0.0075794212 -0.1088476032 -0.2878181934
0.0052624387 -0.0973400846 -0.1720028222
0.0068979701 -0.0949994251 -0.1511653364
-0.0112139899 -0.0711803362 0.1057455018
-0.0036384808 -0.0747391880 0.0610747971
-0.0023871572 -0.0966918841 -0.1557738930
-0.0071295220 -0.0762834400 0.0504405834
0.0021288723 -0.0862974077 -0.0596911125
-0.0088182753 -0.0663581043 0.1499326378
-0.0111025749 -0.1095410362 -0.2705028951
-0.0022498237 -0.1082006320 -0.2687878609
-0.0077964654 -0.0896500573 -0.0797508061
-0.0005134723 -0.1219444126 -0.4057786763
-0.0050993501 -0.1036409959 -0.2204051465
-0.0043839938 -0.0693015233 0.1153503656
0.0042780391 -0.1140987948 -0.3350420594
0.0187321212 -0.1226931810 -0.4379619360
-0.0069859941 -0.1044759601 -0.2261562943
0.0140980743 -0.1112002060 -0.3192984462
-0.0071930131 -0.1255714446 -0.4327178895
0.0331078768 -0.0817047656 -0.1106537059
0.0193332899 -0.0802877471 -0.0455795489
0.0243460853 -0.0653065816 0.0723222047
0.0188899934 -0.0958399251 -0.1859907061
0.0330173261 -0.0798917189 -0.0937464237
0.0214616749 -0.0969367996 -0.2057442814
0.0177275073 -0.0610290729 0.1364499182
0.0214645267 -0.1114144400 -0.3380261660
0.0333272032 -0.1018411964 -0.2954552174
0.0278000403 -0.0718929246 -0.0009232720
0.0358922817 -0.0882368311 -0.1808694899
0.0346272662 -0.1112981737 -0.3867767751
0.0406590179 -0.1001048833 -0.3073380589
0.0240048282 -0.0727498084 0.0056103365
0.0246971194 -0.1214765012 -0.4421892166
0.0212541670 -0.0855122507 -0.1005811915
0.0275561009 -0.0880600065 -0.1477067769
0.0173170567 -0.0663360953 0.0895170420
0.0288535561 -0.0701168776 0.0113160321
0.0285286009 -0.0754282624 -0.0359801836
0.0315417871 -0.1000553742 -0.2723827660
0.0080938721 -0.0694322139 0.0961335003
0.0045090201 -0.0565515123 0.2273817509
0.0172919538 -0.0837845728 -0.0698022768
0.0119725438 -0.0761135817 0.0204127245
0.0151030943 -0.0973844603 -0.1857706606
0.0181554835 -0.0976693109 -0.1999246031
0.0148836868 -0.0602146909 0.1546522230
0.0081124548 -0.0572245717 0.2075955719
0.0270110872 -0.0385819003 0.2707521319
0.0409514531 -0.0747856498 -0.0972059295
0.0345788524 -0.0585504696 0.0685305744
0.0714308396 -0.0917366743 -0.4136823714
0.0548925512 -0.0671486035 -0.1212158278
0.0530834161 -0.0723228157 -0.1509190053
0.0736264661 -0.0884619430 -0.4012086093
0.0472299121 -0.0782909915 -0.1625035405
0.0645226017 -0.0899750516 -0.3582736254
0.0412909947 -0.0800001621 -0.1401607394
0.0586081333 -0.0728768334 -0.1885245740
0.0529966168 -0.0739300251 -0.1630055308
0.0436087921 -0.0713326260 -0.0861124769
0.0550537631 -0.1013727561 -0.3906916380
0.0582409613 -0.0929621980 -0.3438935876
0.0451917537 -0.0902225375 -0.2438427061
0.0400436670 -0.0703054816 -0.0565916970
0.0522696041 -0.0838953406 -0.2368119210
0.0501384474 -0.0790863857 -0.1862536520
0.0605714731 -0.0929722264 -0.3580022454
0.0264869370 -0.0621088333 0.0893271416
0.0247832686 -0.0452378467 0.2319443971
0.0369889140 -0.0707118958 -0.0413907133
0.0303145889 -0.0714124218 -0.0067067631
0.0226504840 -0.0415040068 0.2740778029
0.0328323953 -0.0694525838 -0.0064883335
0.0291079283 -0.0653721094 0.0479464941
0.0318642966 -0.0579726510 0.0894053876
0.0695679933 -0.0775612518 -0.2970407903
0.0279007796 -0.0337426253 0.2936495841
0.0507830605 -0.0585138351 -0.0349972509
0.0401442423 -0.0415458567 0.1506179720
0.0609480180 -0.0681885481 -0.1729881614
0.0365791954 -0.0401276946 0.1871248186
0.0613932721 -0.0711800978 -0.1944906712
0.0276454296 -0.0361964144 0.2808811665
0.0564011820 -0.0391397513 0.0375588275
0.0873534530 -0.0631572977 -0.3498637378
0.0561981536 -0.0432092622 0.0146528687
0.0406242982 -0.0361296199 0.1794576645
0.0862534791 -0.0564993508 -0.3011526763
0.0892440081 -0.0686924830 -0.3980180025
0.0888967216 -0.0717548579 -0.4137289822
0.0795281380 -0.0604636855 -0.2722547948
0.0632656515 -0.0561137162 -0.1184807345
0.0737589896 -0.0670621321 -0.2667155862
0.0532448739 -0.0399304181 0.0575617924
0.0547471493 -0.0498765372 -0.0141003970
0.0699463338 -0.0638908669 -0.2177126408
0.0847353116 -0.0770331100 -0.4128560722
0.0435047150 -0.0320747793 0.1812698096
0.0884794220 -0.0667003766 -0.3800271153
0.0949575678 -0.0647609979 -0.4191763699
0.0743635818 -0.0825998783 -0.3649972379
0.0791295841 -0.0825591311 -0.4021436274
0.0484906919 -0.0453054942 0.0625026152
0.0557428785 -0.0449881591 0.0075159301
0.0523567311 -0.0283241905 0.1158391833
0.0502115563 -0.0353076980 0.1090105698
0.0738537759 -0.0465722606 -0.1496201158
0.0503926575 -0.0260744486 0.1422974765
0.0629030466 -0.0345277116 -0.0039904132
0.0483572707 -0.0315263830 0.1402613968
0.0507103577 -0.0343976691 0.1078970283
0.0379447863 -0.0168255493 0.2910258174
0.0513755903 -0.0207079705 0.1536256522
0.1101803109 -0.0357737355 -0.4406435192
0.0506081544 -0.0172895491 0.1735737175
0.0813453346 -0.0262264125 -0.1410691291
0.0999279842 -0.0486865863 -0.3958428800
0.1020713598 -0.0310021527 -0.3485007286
0.0870908499 -0.0360076912 -0.2305780351
0.0698873252 -0.0338036716 -0.0650607273
0.1088042855 -0.0328956023 -0.4171801209
0.0676502138 -0.0310268067 -0.0341136716
0.0594276525 -0.0213447977 0.0776498467
0.0592298433 -0.0269636512 0.0581934452
0.0750399008 -0.0315075554 -0.1034469157
0.0740262419 -0.0374906063 -0.1168280840
0.0541567355 -0.0202472303 0.1299598813
0.0740072504 -0.0302292127 -0.0891746506
0.0839179978 -0.0460944884 -0.2397620231
0.0484788753 -0.0160893686 0.1975692660
0.0380716063 -0.0139319291 0.3008174002
0.0682753474 -0.0214477368 -0.0035744191
0.0987864435 -0.0543053597 -0.4066766500
0.0625013933 -0.0155827422 0.0612140447
0.0792473555 -0.0224851947 -0.1118799672
0.0562385805 -0.0088630207 0.1312908679
0.0928815901 -0.0249763504 -0.2487713248
0.0897979066 -0.0255861599 -0.2193244100
0.0602761023 -0.0131128598 0.0862195343
0.0652178228 -0.0121687632 0.0389872976
0.0474031903 -0.0093393680 0.2173013389
0.0743200555 -0.0147682372 -0.0536097661
0.0874919295 -0.0083364667 -0.1744502932
0.0729596838 -0.0061123986 -0.0290997382
0.0918566883 -0.0029829480 -0.2103343010
0.0772179142 -0.0064436290 -0.0712761432
0.0825832114 -0.0033294603 -0.1198607683
0.1107492894 -0.0183912721 -0.4154537320
0.0603455454 -0.0024117711 0.0993513465
0.0802872628 -0.0014713019 -0.0949512124
0.0983310789 -0.0248571932 -0.3020465374
0.0769487917 -0.0126252240 -0.0766167864
0.1012254357 -0.0204042885 -0.3246760964
0.0516048595 -0.0036067760 0.1835061014
0.0932230130 -0.0232926924 -0.2499455661
0.1033709347 -0.0139192557 -0.3373410702
0.0763441995 -0.0068441373 -0.0632271394
0.1010656878 -0.0197552759 -0.3222724795
0.0806566328 -0.0001090517 -0.0968146697
0.0496249758 -0.0048529650 0.2013092488
0.1004064903 -0.0070864880 -0.2994563878
0.0818094984 0.0026082355 -0.1110573113
0.0462195128 0.0111890910 0.2268053442
0.0774028525 0.0025516720 -0.0677791983
0.0567637086 0.0068917354 0.1289732754
0.0836941078 0.0020933368 -0.1288702488
0.0432442278 0.0031507229 0.2663522661
0.0659238100 0.0073993392 0.0385080986
0.0732200071 0.0053732023 -0.0304108448
0.0456958525 0.0118138967 0.2311336398
0.0980326161 0.0156139992 -0.2869025171
0.0813230053 0.0085903509 -0.1140092686
0.0519819781 0.0146558434 0.1658330858
0.0782344267 0.0199322198 -0.0983669013
0.0750410408 0.0160490647 -0.0620456263
0.0588299856 0.0127562815 0.1011449546
0.1036610082 0.0129812313 -0.3386874199
0.0898804665 0.0230207965 -0.2165367603
0.0881957114 0.0065072016 -0.1787030846
0.0801751092 0.0147113474 -0.1106557995
0.1017465666 0.0227314178 -0.3325029612
0.1083643287 0.0065668216 -0.3765213192
0.0966293737 0.0227771811 -0.2823908925
0.0850320682 0.0141250109 -0.1575178653
0.1043222472 0.0196144376 -0.3537327647
0.0811846107 0.0085571380 -0.1126097068
0.1050816923 0.0086321617 -0.3470028639
0.0788091123 0.0112927221 -0.0928499326
0.0926440135 0.0049833707 -0.2203490436
0.0850274265 0.0122300135 -0.1550263613
0.0660448447 0.0213952903 0.0178423878
0.0698367134 0.0229682270 -0.0227537490
0.0491365269 0.0199053232 0.1779598743
0.0496365502 0.0176352877 0.1819817424
0.0567321666 0.0239515249 0.0932517424
0.0684879124 0.0265527107 -0.0239958223
0.0995407552 0.0305597503 -0.3228665888
0.0513671152 0.0259147417 0.1348387599
0.0936709568 0.0510656349 -0.3468399346
0.0619739033 0.0420822725 -0.0232512876
0.0798721611 0.0525165610 -0.2262613177
0.1019698083 0.0510222316 -0.4224961102
0.0914316475 0.0480741672 -0.3150601983
0.0494811237 0.0269309282 0.1482242048
0.0813820958 0.0408432148 -0.1958809793
0.0728036836 0.0469917618 -0.1407740861
0.0863524228 0.0509961508 -0.2797133327
0.0395556241 0.0272776857 0.2375943363
0.1083022282 0.0375591107 -0.4294020236
0.1009193882 0.0496629588 -0.4077556729
0.0999886170 0.0385545976 -0.3572140932
0.0893626809 0.0361257493 -0.2509409785
0.0717686713 0.0416618772 -0.1111480668
0.0751539245 0.0448058359 -0.1539739519
0.0873590782 0.0553911477 -0.3055426776
0.0691855773 0.0342760272 -0.0595973842
0.0904128477 0.0537402928 -0.3271950483
0.0767781213 0.0331254415 -0.1246107742
0.0426683240 0.0336785652 0.1795127541
0.0814945698 0.0560047477 -0.2595030963
0.0812119991 0.0564781204 -0.2601360381
0.0336443335 0.0318631977 0.2612386346
0.0513202511 0.0396195613 0.0758685023
0.0603829548 0.0432945564 -0.0173562597
0.0588120557 0.0460538603 -0.0216431413
0.0372191593 0.0360938013 0.2077239454
0.0434806682 0.0509509593 0.0691582337
0.0738750473 0.0600914583 -0.2243270725
0.0646631941 0.0580512621 -0.1397731304
0.0376547985 0.0404929146 0.1778230667
0.0702646896 0.0711475760 -0.2625602186
0.0527348258 0.0540014319 -0.0218090415
0.0874598175 0.0684733614 -0.3813655078
0.0858489797 0.0688705295 -0.3711188436
0.0407080017 0.0472285673 0.1133199930
0.0428906642 0.0492214933 0.0841986537
0.0837629810 0.0634896234 -0.3223597705
0.0805962384 0.0822483599 -0.4104439318
0.0553497039 0.0560410582 -0.0546025597
0.0707231462 0.0693640336 -0.2554201782
0.0731332898 0.0617902353 -0.2287340313
0.0937910900 0.0623538308 -0.3941975236
0.0894712433 0.0683974847 -0.3966889083
0.0877307355 0.0714474246 -0.4013951719
0.0870780498 0.0682866797 -0.3772467375
0.0804259777 0.0616897009 -0.2853435278
0.0828533992 0.0767882317 -0.3952820897
0.0557651259 0.0832590386 -0.2511232495
0.0656483248 0.0871453360 -0.3411103189
0.0605395213 0.0924695134 -0.3521257043
0.0461587124 0.0852075890 -0.2085790187
0.0622272156 0.0943231881 -0.3768284917
0.0561865009 0.0837496072 -0.2575084269
0.0423659459 0.0679464042 -0.0503239930
0.0633433238 0.0763992965 -0.2429261953
0.0572118163 0.0732877776 -0.1816026270
0.0694689676 0.0880418345 -0.3711441755
0.0485322587 0.0833099782 -0.2079803944
0.0500033163 0.0793266147 -0.1855847389
0.0309813693 0.0506806523 0.1536703110
0.0464736409 0.0902410820 -0.2499651313
0.0292984843 0.0415527038 0.2354146987
0.0736403987 0.0864605829 -0.3838508129
0.0389214419 0.0686613917 -0.0351971798
0.0484267101 0.0764227286 -0.1533110887
0.0599121079 0.0867783651 -0.3036990166
0.0532892942 0.0901641846 -0.2903925478
